# .PCD v0.7 - Point Cloud Data file format
VERSION 0.7
FIELDS x y z rgb
SIZE 4 4 4 4
TYPE F F F F
COUNT 1 1 1 1
WIDTH 1275
HEIGHT 1
VIEWPOINT 0 0 0 1 0 0 0
POINTS 1275
DATA ascii
0.411561 0.0726579 0.0103168 16711680
0.412246 0.0734963 0.0113232 16711680
0.414444 0.0747 0.014466 16711680
0.414463 0.0753745 0.014534 16711680
0.413781 0.07588 0.0136117 16711680
0.413225 0.0764167 0.0128667 16711680
0.411675 0.0767167 0.0107204 16711680
0.41245 0.0775727 0.0118543 16711680
0.411571 0.0780347 0.0106542 16711680
0.411496 0.0786881 0.0105883 16711680
0.411466 0.0793524 0.0105873 16711680
0.412697 0.0803128 0.0123634 16711680
0.413854 0.0812543 0.0140374 16711680
0.414111 0.0819833 0.0144398 16711680
0.41324 0.082449 0.0132504 16711680
0.412538 0.0829554 0.012301 16711680
0.4132 0.0837782 0.0132746 16711680
0.412782 0.0843508 0.0127252 16711680
0.412381 0.0849278 0.0121988 16711680
0.412769 0.0856862 0.012787 16711680
0.413927 0.0866194 0.0144595 16711680
0.413976 0.0872985 0.0145684 16711680
0.413662 0.0878951 0.0141652 16711680
0.413371 0.0884973 0.0137951 16711680
0.412828 0.0890431 0.013069 16711680
0.412442 0.0896247 0.0125642 16711680
0.4117 0.0901271 0.0115576 16711680
0.411456 0.0907416 0.0112532 16711680
0.411237 0.091362 0.0109843 16711680
0.411048 0.0919892 0.0107579 16711680
0.411019 0.0926519 0.0107569 16711680
0.410989 0.0933142 0.010754 16711680
0.413116 0.0944493 0.0137922 16711680
0.414164 0.0953455 0.0153103 16711680
0.413562 0.0958805 0.0144999 16711680
0.412836 0.0963896 0.0135163 16711680
0.412334 0.0969481 0.012848 16711680
0.411937 0.0975299 0.0123285 16711680
0.411826 0.0981735 0.0122116 16711680
0.411357 0.0987404 0.0115888 16711680
0.411162 0.0993666 0.0113543 16711680
0.410935 0.0999859 0.0110729 16711680
0.410692 0.100602 0.0107698 16711680
0.410424 0.101214 0.0104325 16711680
0.410285 0.101852 0.0102758 16711680
0.410349 0.102533 0.0104045 16711680
0.410023 0.103133 0.00998414 16711680
0.410227 0.103843 0.0103118 16711680
0.41013 0.104491 0.0102142 16711680
0.410212 0.105175 0.0103689 16711680
0.409961 0.105791 0.0100539 16711680
0.410031 0.106472 0.010192 16711680
0.409997 0.107133 0.0101833 16711680
0.409853 0.10777 0.0100183 16711680
0.410079 0.108483 0.0103765 16711680
0.41001 0.109136 0.0103177 16711680
0.409823 0.109765 0.0100939 16711680
0.409774 0.110422 0.0100632 16711680
0.409656 0.111066 0.00993681 16711680
0.409482 0.111697 0.00972986 16711680
0.41105 0.112675 0.0119786 16711680
0.412305 0.113588 0.013785 16711680
0.411971 0.114186 0.0133529 16711680
0.410981 0.114657 0.0119967 16711680
0.410514 0.115231 0.011378 16711680
0.418001 0.0358491 0.0159315 16711680
0.416983 0.0362323 0.014533 16711680
0.415854 0.0365849 0.0129765 16711680
0.414526 0.0368828 0.0111399 16711680
0.416503 0.0381223 0.0139799 16711680
0.417517 0.0390856 0.0154574 16711680
0.417345 0.0397118 0.0152566 16711680
0.416931 0.0402697 0.0147126 16711680
0.41636 0.0407839 0.0139461 16711680
0.415817 0.0413069 0.0132208 16711680
0.415838 0.0419883 0.0132923 16711680
0.415531 0.042578 0.0128999 16711680
0.415449 0.0432306 0.0128255 16711680
0.414999 0.0437812 0.0122312 16711680
0.414544 0.0443308 0.0116289 16711680
0.414579 0.0450164 0.0117209 16711680
0.415587 0.0459696 0.0131893 16711680
0.415937 0.0467402 0.0137253 16711680
0.416472 0.0475611 0.0145246 16711680
0.416642 0.0482814 0.014807 16711680
0.416552 0.0489304 0.0147212 16711680
0.416204 0.0495095 0.0142703 16711680
0.415757 0.0500622 0.0136801 16711680
0.414918 0.0505098 0.0125355 16711680
0.414531 0.0510801 0.0120296 16711680
0.414432 0.0517281 0.0119313 16711680
0.414011 0.0522899 0.0113771 16711680
0.413927 0.0529422 0.0112997 16711680
0.413611 0.0535329 0.0108953 16711680
0.414001 0.054311 0.0114881 16711680
0.413784 0.0549279 0.0112226 16711680
0.413374 0.0554942 0.0106846 16711680
0.413293 0.0561476 0.0106119 16711680
0.413243 0.0568087 0.0105817 16711680
0.413393 0.0575223 0.0108349 16711680
0.413494 0.0582228 0.0110197 16711680
0.413869 0.0589943 0.0115919 16711680
0.415255 0.0600266 0.0135915 16711680
0.41579 0.0608372 0.0143894 16711680
0.415573 0.0614532 0.0141244 16711680
0.415396 0.0620794 0.0139143 16711680
0.415064 0.0626663 0.0134863 16711680
0.414892 0.0632944 0.0132842 16711680
0.414698 0.0639171 0.0130519 16711680
0.414304 0.064489 0.0125351 16711680
0.413919 0.0650638 0.012032 16711680
0.413371 0.065598 0.0112987 16711680
0.41346 0.066293 0.0114655 16711680
0.412891 0.0668229 0.0107027 16711680
0.412742 0.0674585 0.0105337 16711680
0.412743 0.0681314 0.0105757 16711680
0.41278 0.0688132 0.0106692 16711680
0.412578 0.0694355 0.0104237 16711680
0.41261 0.070116 0.0105107 16711680
0.412602 0.0707862 0.0105392 16711680
0.412322 0.0713899 0.0101852 16711680
0.41237 0.0720739 0.0102936 16711680
0.412271 0.0727219 0.0101945 16711680
0.412669 0.0734906 0.0107971 16711680
0.414965 0.0747183 0.0140811 16711680
0.4158 0.0755895 0.0153008 16711680
0.415229 0.0761213 0.0145358 16711680
0.414391 0.0765896 0.0133922 16711680
0.413954 0.0771548 0.012815 16711680
0.413805 0.0777893 0.012645 16711680
0.413232 0.0783234 0.0118771 16711680
0.413506 0.0790585 0.0123038 16711680
0.414643 0.0799969 0.0139494 16711680
0.415318 0.0808248 0.0149438 16711680
0.415123 0.0814473 0.0147076 16711680
0.414422 0.081952 0.0137587 16711680
0.41376 0.0824665 0.0128639 16711680
0.413263 0.0830203 0.0122027 16711680
0.413901 0.0838373 0.0131427 16711680
0.413909 0.0845081 0.0131949 16711680
0.414743 0.0853685 0.0144118 16711680
0.414941 0.0860819 0.0147316 16711680
0.41465 0.0866832 0.0143615 16711680
0.414311 0.0872738 0.0139232 16711680
0.414173 0.0879104 0.0137682 16711680
0.413648 0.0884596 0.0130671 16711680
0.413217 0.0890305 0.0124983 16711680
0.412811 0.0896076 0.0119646 16711680
0.412348 0.0901726 0.0113515 16711680
0.412197 0.0908076 0.0111775 16711680
0.41197 0.091426 0.0108972 16711680
0.411656 0.0920253 0.0104947 16711680
0.41162 0.0926864 0.0104835 16711680
0.41387 0.0938502 0.0136976 16711680
0.415057 0.0947777 0.0154134 16711680
0.414466 0.0953145 0.0146185 16711680
0.413946 0.0958676 0.0139248 16711680
0.413413 0.0964185 0.0132117 16711680
0.412616 0.096913 0.0121264 16711680
0.412296 0.0975114 0.0117146 16711680
0.412399 0.0982011 0.0118995 16711680
0.412195 0.0988248 0.0116516 16711680
0.411765 0.0994003 0.0110838 16711680
0.411546 0.100021 0.0108145 16711680
0.411374 0.100652 0.0106112 16711680
0.411198 0.101283 0.0104029 16711680
0.411127 0.101936 0.0103422 16711680
0.411176 0.102614 0.0104506 16711680
0.410971 0.103238 0.0102009 16711680
0.410941 0.103899 0.0101985 16711680
0.41091 0.10456 0.0101939 16711680
0.410883 0.105222 0.010195 16711680
0.410644 0.10584 0.00989652 16711680
0.410576 0.106493 0.00984073 16711680
0.41063 0.107171 0.00995517 16711680
0.410798 0.107872 0.0102314 16711680
0.410755 0.10853 0.0102098 16711680
0.410675 0.109181 0.010136 16711680
0.410541 0.10982 0.00998557 16711680
0.410466 0.110472 0.00992 16711680
0.410285 0.111102 0.00970304 16711680
0.410901 0.111891 0.0106103 16711680
0.412982 0.11297 0.0135846 16711680
0.412866 0.113611 0.013459 16711680
0.412252 0.114154 0.0126319 16711680
0.411746 0.11472 0.0119573 16711680
0.419054 0.0360232 0.0162978 16711680
0.418304 0.0364828 0.0152786 16711680
0.41737 0.0368905 0.0139976 16711680
0.416134 0.0372134 0.0122886 16711680
0.416106 0.0378819 0.0122917 16711680
0.417184 0.0388643 0.0138617 16711680
0.41806 0.0397874 0.0151439 16711680
0.417906 0.0404184 0.0149676 16711680
0.417686 0.0410312 0.014699 16711680
0.417365 0.0416156 0.014286 16711680
0.416976 0.0421815 0.013778 16711680
0.416744 0.0427915 0.013491 16711680
0.416547 0.0434116 0.0132543 16711680
0.416238 0.0440007 0.0128583 16711680
0.415664 0.0445169 0.0120883 16711680
0.415713 0.0452058 0.0121996 16711680
0.415558 0.0458381 0.0120212 16711680
0.415987 0.0466311 0.0126708 16711680
0.416711 0.047504 0.0137377 16711680
0.417052 0.0482711 0.0142624 16711680
0.417466 0.0490574 0.0148904 16711680
0.417274 0.0496785 0.0146604 16711680
0.417089 0.0503017 0.0144408 16711680
0.416598 0.0508423 0.013787 16711680
0.416273 0.0514283 0.0133687 16711680
0.41549 0.0518918 0.0123026 16711680
0.415112 0.0524648 0.0118093 16711680
0.414879 0.0530767 0.0115206 16711680
0.414761 0.0537197 0.0113961 16711680
0.41457 0.0543431 0.0111666 16711680
0.414627 0.0550325 0.0112892 16711680
0.414562 0.0556892 0.0112381 16711680
0.414381 0.0563159 0.0110247 16711680
0.414203 0.056943 0.0108131 16711680
0.413753 0.0574994 0.0102184 16711680
0.413987 0.0582347 0.0105915 16711680
0.414464 0.0590326 0.0113077 16711680
0.416066 0.0601212 0.013616 16711680
0.416309 0.0608559 0.0140002 16711680
0.416007 0.06145 0.0136154 16711680
0.415839 0.0620785 0.0134178 16711680
0.415745 0.0627264 0.0133263 16711680
0.415532 0.0633439 0.0130668 16711680
0.415541 0.064018 0.0131205 16711680
0.41531 0.0646309 0.012834 16711680
0.415347 0.0653121 0.0129278 16711680
0.415109 0.0659238 0.012633 16711680
0.414153 0.0663549 0.0113211 16711680
0.414195 0.0670377 0.0114216 16711680
0.413622 0.0675666 0.0106523 16711680
0.413554 0.0682219 0.0105968 16711680
0.413508 0.0688829 0.0105731 16711680
0.413592 0.0695761 0.0107336 16711680
0.413448 0.0702126 0.0105705 16711680
0.413293 0.0708463 0.0103912 16711680
0.413108 0.0714731 0.0101717 16711680
0.413182 0.0721632 0.0103166 16711680
0.413191 0.0728372 0.01037 16711680
0.413329 0.0735426 0.0106068 16711680
0.415169 0.0746597 0.0132481 16711680
0.416363 0.0756182 0.0149772 16711680
0.416331 0.0762794 0.0149724 16711680
0.416303 0.0769416 0.0149738 16711680
0.416247 0.0775969 0.0149349 16711680
0.416156 0.0782439 0.014847 16711680
0.416086 0.0788957 0.0147879 16711680
0.41615 0.0795795 0.0149195 16711680
0.415968 0.0802049 0.0147027 16711680
0.415709 0.0808121 0.014376 16711680
0.415309 0.0813868 0.0138514 16711680
0.415061 0.0819974 0.0135413 16711680
0.414861 0.0826194 0.0132989 16711680
0.414773 0.0832677 0.0132147 16711680
0.415639 0.084137 0.0144793 16711680
0.415683 0.0848148 0.0145804 16711680
0.41546 0.0854314 0.0143068 16711680
0.4153 0.0860623 0.0141197 16711680
0.415075 0.0866787 0.0138421 16711680
0.414738 0.0872698 0.013406 16711680
0.41461 0.0879087 0.0132658 16711680
0.41377 0.0883864 0.0121179 16711680
0.413617 0.0890204 0.011942 16711680
0.413448 0.089651 0.0117441 16711680
0.413168 0.0902565 0.0113877 16711680
0.412431 0.0907606 0.0103871 16711680
0.412299 0.0914003 0.0102408 16711680
0.412338 0.0920778 0.0103357 16711680
0.414992 0.0933331 0.0141249 16711680
0.415859 0.0941905 0.0153883 16711680
0.415592 0.0947979 0.0150518 16711680
0.414979 0.0953297 0.0142248 16711680
0.414569 0.0959067 0.0136859 16711680
0.413856 0.0964184 0.0127189 16711680
0.413697 0.0970508 0.0125331 16711680
0.413311 0.0976345 0.0120279 16711680
0.413229 0.0982839 0.0119514 16711680
0.412676 0.0988327 0.011211 16711680
0.412388 0.0994386 0.010844 16711680
0.41221 0.100068 0.0106316 16711680
0.412059 0.100703 0.0104574 16711680
0.412079 0.101375 0.0105259 16711680
0.411844 0.101993 0.0102338 16711680
0.411831 0.102658 0.0102549 16711680
0.411762 0.10331 0.010196 16711680
0.411666 0.103958 0.0101004 16711680
0.411577 0.104607 0.0100147 16711680
0.411451 0.105248 0.00987625 16711680
0.41146 0.105916 0.00992823 16711680
0.411417 0.106575 0.00990665 16711680
0.411561 0.107271 0.0101484 16711680
0.411631 0.107952 0.0102866 16711680
0.41153 0.108598 0.0101832 16711680
0.411382 0.109234 0.0100139 16711680
0.411353 0.109895 0.010012 16711680
0.411263 0.110543 0.00992453 16711680
0.411294 0.111215 0.0100071 16711680
0.413776 0.112375 0.0135496 16711680
0.414228 0.113129 0.0142257 16711680
0.413192 0.113588 0.0128032 16711680
0.41224 0.114065 0.0114987 16711680
0.42023 0.0362328 0.0168402 16711680
0.419557 0.0367138 0.0159289 16711680
0.418821 0.0371774 0.0149269 16711680
0.417777 0.0375545 0.0134907 16711680
0.416818 0.0379568 0.0121723 16711680
0.417729 0.0388917 0.013507 16711680
0.418596 0.0398126 0.0147791 16711680
0.418984 0.0405967 0.0153712 16711680
0.418662 0.0411799 0.0149566 16711680
0.418244 0.0417368 0.0144063 16711680
0.418068 0.0423617 0.0141985 16711680
0.417255 0.0428092 0.0130893 16711680
0.417214 0.0434727 0.0130732 16711680
0.417018 0.0440928 0.0128367 16711680
0.416715 0.0446838 0.01245 16711680
0.416169 0.0452079 0.0117183 16711680
0.416307 0.045921 0.0119555 16711680
0.416532 0.0466577 0.012316 16711680
0.417017 0.0474653 0.0130458 16711680
0.417318 0.0482216 0.0135144 16711680
0.41771 0.0490021 0.0141115 16711680
0.417906 0.0497288 0.0144315 16711680
0.418142 0.0504657 0.0148075 16711680
0.418151 0.051141 0.0148625 16711680
0.417717 0.0516966 0.0142888 16711680
0.416899 0.0521499 0.0131721 16711680
0.41677 0.0527888 0.0130317 16711680
0.416201 0.05331 0.0122666 16711680
0.415771 0.0538693 0.0116997 16711680
0.415785 0.0545467 0.0117607 16711680
0.41519 0.0550629 0.0109596 16711680
0.415236 0.055749 0.0110662 16711680
0.415299 0.0564395 0.0111974 16711680
0.414985 0.0570307 0.0107943 16711680
0.414947 0.0576946 0.0107822 16711680
0.414925 0.0583626 0.010793 16711680
0.416014 0.0593193 0.0123768 16711680
0.417095 0.0602722 0.0139494 16711680
0.416611 0.0608186 0.0133048 16711680
0.416387 0.0614328 0.0130293 16711680
0.416247 0.0620686 0.0128714 16711680
0.415889 0.0626488 0.0124059 16711680
0.415757 0.0632872 0.0122607 16711680
0.416071 0.0640392 0.0127465 16711680
0.41617 0.064736 0.0129278 16711680
0.416378 0.06546 0.013263 16711680
0.41627 0.066104 0.0131518 16711680
0.416085 0.0667287 0.0129318 16711680
0.416159 0.0674182 0.0130767 16711680
0.415566 0.0679409 0.0122786 16711680
0.415401 0.0685711 0.0120859 16711680
0.415335 0.069226 0.0120337 16711680
0.415135 0.0698475 0.011791 16711680
0.414997 0.0704848 0.0116374 16711680
0.414518 0.0710381 0.0110009 16711680
0.414353 0.0716689 0.0108076 16711680
0.414099 0.0722782 0.010489 16711680
0.413872 0.0728943 0.0102081 16711680
0.413861 0.0735634 0.0102347 16711680
0.41574 0.0746903 0.0129344 16711680
0.416894 0.075639 0.0146077 16711680
0.41688 0.0763044 0.0146281 16711680
0.416878 0.0769728 0.0146667 16711680
0.416889 0.077644 0.0147223 16711680
0.416759 0.0782815 0.0145791 16711680
0.416605 0.0789133 0.0144013 16711680
0.416536 0.0795655 0.0143449 16711680
0.416497 0.0802248 0.0143303 16711680
0.415973 0.0807695 0.0136285 16711680
0.415713 0.0813771 0.0133016 16711680
0.415561 0.0820102 0.0131273 16711680
0.416194 0.0828267 0.0140638 16711680
0.416668 0.0836049 0.0147743 16711680
0.416478 0.0842285 0.014546 16711680
0.416007 0.0847871 0.0139191 16711680
0.415863 0.0854217 0.0137554 16711680
0.415447 0.0859941 0.0132073 16711680
0.415447 0.0866622 0.0132481 16711680
0.415139 0.0872599 0.0128527 16711680
0.414694 0.0878268 0.012264 16711680
0.414425 0.0884341 0.011923 16711680
0.414165 0.0890436 0.0115954 16711680
0.41392 0.089657 0.0112892 16711680
0.413723 0.0902812 0.0110508 16711680
0.413144 0.0908205 0.010273 16711680
0.413361 0.0915374 0.0106189 16711680
0.415853 0.0927587 0.0141821 16711680
0.416385 0.0935429 0.0149747 16711680
0.416089 0.0941435 0.0145955 16711680
0.415872 0.0947621 0.0143299 16711680
0.415636 0.0953765 0.0140351 16711680
0.415245 0.0959573 0.013522 16711680
0.414889 0.0965464 0.0130594 16711680
0.414523 0.0971336 0.0125813 16711680
0.413803 0.0976449 0.0116026 16711680
0.413826 0.098317 0.0116758 16711680
0.413627 0.0989412 0.0114336 16711680
0.413324 0.0995434 0.0110444 16711680
0.413138 0.100171 0.0108225 16711680
0.413037 0.100817 0.0107181 16711680
0.412896 0.101454 0.0105586 16711680
0.412741 0.102088 0.0103791 16711680
0.41291 0.102791 0.0106579 16711680
0.412481 0.103368 0.0100917 16711680
0.412572 0.104054 0.0102596 16711680
0.412148 0.104633 0.00969923 16711680
0.412471 0.105366 0.0101953 16711680
0.412605 0.106061 0.0104247 16711680
0.412424 0.10669 0.0102077 16711680
0.412419 0.107355 0.0102403 16711680
0.41232 0.108002 0.0101401 16711680
0.412217 0.108647 0.0100331 16711680
0.412112 0.109292 0.00992477 16711680
0.412009 0.109937 0.00981784 16711680
0.412079 0.110618 0.009956 16711680
0.413925 0.111653 0.0126039 16711680
0.41511 0.112553 0.0143164 16711680
0.413979 0.112992 0.012758 16711680
0.413618 0.113585 0.0122864 16711680
0.412412 0.114012 0.010622 16711680
0.410876 0.114376 0.00849211 16711680
0.420673 0.036906 0.0163882 16711680
0.419862 0.0373476 0.0152797 16711680
0.419241 0.0378445 0.0144402 16711680
0.418098 0.0381938 0.012861 16711680
0.417498 0.0386989 0.0120525 16711680
0.419028 0.0398081 0.0142655 16711680
0.419847 0.0407142 0.0154707 16711680
0.41984 0.0413858 0.0155026 16711680
0.41947 0.0419554 0.0150197 16711680
0.41906 0.0425144 0.0144802 16711680
0.418674 0.0430804 0.0139744 16711680
0.418101 0.043595 0.0132043 16711680
0.41792 0.044219 0.0129892 16711680
0.417463 0.0447669 0.0123835 16711680
0.417354 0.0454116 0.0122716 16711680
0.417207 0.0460455 0.0121045 16711680
0.416961 0.0466526 0.0117978 16711680
0.41708 0.04736 0.0120093 16711680
0.417144 0.0480518 0.0121415 16711680
0.417662 0.0488672 0.0129182 16711680
0.418284 0.0497102 0.0138434 16711680
0.418703 0.0504966 0.0144784 16711680
0.418809 0.0511981 0.0146713 16711680
0.41869 0.0518384 0.014544 16711680
0.418594 0.0524851 0.0144498 16711680
0.418189 0.0530489 0.0139172 16711680
0.417387 0.0535075 0.0128226 16711680
0.417202 0.0541311 0.0126011 16711680
0.416788 0.0546943 0.0120567 16711680
0.416218 0.0552165 0.0112896 16711680
0.416252 0.0558992 0.0113803 16711680
0.41591 0.0564825 0.0109366 16711680
0.415913 0.0571568 0.0109828 16711680
0.415619 0.0577534 0.0106087 16711680
0.416591 0.0586805 0.0120274 16711680
0.417626 0.0596223 0.0135355 16711680
0.417653 0.0603013 0.0136167 16711680
0.417184 0.0608513 0.0129921 16711680
0.417035 0.0614847 0.0128224 16711680
0.416602 0.0620452 0.0122508 16711680
0.416417 0.0626697 0.0120296 16711680
0.416334 0.0633207 0.0119541 16711680
0.416433 0.0640178 0.012136 16711680
0.416479 0.0647011 0.0122414 16711680
0.416744 0.0654399 0.0126588 16711680
0.416995 0.0661746 0.0130563 16711680
0.417263 0.0669128 0.0134763 16711680
0.417177 0.0675619 0.0133961 16711680
0.417169 0.0682304 0.0134263 16711680
0.417279 0.0689282 0.0136228 16711680
0.417375 0.0696223 0.0137998 16711680
0.41736 0.0702886 0.0138197 16711680
0.417036 0.0708783 0.0134013 16711680
0.416908 0.0715168 0.0132608 16711680
0.416751 0.0721482 0.0130798 16711680
0.416504 0.0727578 0.0127712 16711680
0.416391 0.0734003 0.012652 16711680
0.41701 0.0742209 0.0135698 16711680
0.417392 0.0749829 0.0141518 16711680
0.417203 0.0756063 0.0139251 16711680
0.417181 0.0762699 0.0139346 16711680
0.41716 0.0769336 0.0139445 16711680
0.417158 0.077602 0.013983 16711680
0.417159 0.078271 0.0140253 16711680
0.417124 0.0789312 0.0140164 16711680
0.416981 0.0795656 0.0138539 16711680
0.416701 0.0801678 0.0134981 16711680
0.416699 0.0808359 0.0135357 16711680
0.416877 0.0815461 0.0138283 16711680
0.417436 0.0823451 0.0146607 16711680
0.417183 0.0829536 0.0143422 16711680
0.417166 0.0836174 0.0143597 16711680
0.416698 0.0841763 0.0137364 16711680
0.416409 0.0847775 0.0133688 16711680
0.416246 0.0854078 0.0131783 16711680
0.416111 0.0860445 0.0130267 16711680
0.415696 0.0866176 0.0124804 16711680
0.415516 0.0872445 0.0122651 16711680
0.415106 0.0878194 0.0117251 16711680
0.414821 0.0884231 0.0113623 16711680
0.414488 0.0890162 0.0109309 16711680
0.414372 0.0896586 0.0108069 16711680
0.414126 0.0902719 0.0104991 16711680
0.414186 0.0909539 0.0106246 16711680
0.416672 0.0921757 0.0141819 16711680
0.417062 0.0929287 0.0147748 16711680
0.41671 0.0935168 0.0143166 16711680
0.41655 0.0941476 0.0141301 16711680
0.416438 0.094789 0.0140115 16711680
0.416185 0.0953995 0.0136927 16711680
0.415641 0.095947 0.0129633 16711680
0.41573 0.0966327 0.0131284 16711680
0.415368 0.0972206 0.0126569 16711680
0.414907 0.0977874 0.0120447 16711680
0.414564 0.0983802 0.0115987 16711680
0.414181 0.0989648 0.0110962 16711680
0.414218 0.0996397 0.0111895 16711680
0.41392 0.100243 0.0108072 16711680
0.413719 0.100867 0.0105623 16711680
0.413577 0.101504 0.0104015 16711680
0.413769 0.102211 0.0107118 16711680
0.413463 0.102814 0.0103201 16711680
0.413372 0.103461 0.0102304 16711680
0.413456 0.104146 0.0103886 16711680
0.413274 0.104774 0.0101702 16711680
0.413273 0.10544 0.0102082 16711680
0.413349 0.106123 0.0103565 16711680
0.413248 0.106768 0.0102527 16711680
0.413222 0.107429 0.0102556 16711680
0.413231 0.108097 0.0103066 16711680
0.413171 0.108751 0.0102626 16711680
0.41283 0.109347 0.00981903 16711680
0.413117 0.110071 0.0102644 16711680
0.414627 0.11104 0.0124387 16711680
0.415722 0.111923 0.0140264 16711680
0.415351 0.112513 0.0135405 16711680
0.414442 0.112996 0.0122944 16711680
0.410248 0.114166 0.0064826 16711680
0.421887 0.0371262 0.016987 16711680
0.421214 0.0376066 0.016073 16711680
0.420662 0.0381228 0.0153326 16711680
0.419683 0.0385178 0.0139842 16711680
0.4188 0.0389414 0.0127727 16711680
0.418468 0.0395224 0.0123429 16711680
0.419739 0.0405572 0.0141916 16711680
0.420363 0.0414072 0.0151199 16711680
0.420359 0.0420797 0.0151561 16711680
0.420269 0.0427281 0.0150716 16711680
0.419855 0.0432857 0.0145259 16711680
0.419862 0.0439611 0.0145776 16711680
0.419282 0.0444732 0.0137959 16711680
0.41861 0.0449609 0.0128851 16711680
0.418415 0.045581 0.0126498 16711680
0.417972 0.0461331 0.0120633 16711680
0.417768 0.0467513 0.0118155 16711680
0.417563 0.0473697 0.0115678 16711680
0.41772 0.048087 0.0118326 16711680
0.418068 0.0488561 0.0123686 16711680
0.418284 0.0495887 0.0127182 16711680
0.418654 0.0503623 0.0132842 16711680
0.419211 0.0511861 0.0141176 16711680
0.419396 0.0519083 0.0144212 16711680
0.419349 0.052568 0.0143969 16711680
0.419469 0.0532724 0.0146091 16711680
0.419087 0.0538422 0.0141089 16711680
0.418477 0.0543518 0.0132852 16711680
0.418332 0.0549859 0.013122 16711680
0.417405 0.0554125 0.0118474 16711680
0.417408 0.0560863 0.0118936 16711680
0.416849 0.0566119 0.0111415 16711680
0.416857 0.0572874 0.011196 16711680
0.41794 0.058244 0.0127745 16711680
0.418708 0.0591166 0.0139059 16711680
0.41853 0.0597416 0.0136942 16711680
0.418073 0.0602943 0.0130874 16711680
0.4176 0.0608435 0.0124577 16711680
0.417338 0.0614477 0.0121276 16711680
0.417138 0.0620681 0.0118854 16711680
0.416931 0.0626871 0.0116341 16711680
0.416778 0.06332 0.0114583 16711680
0.416792 0.0639953 0.011519 16711680
0.416715 0.0646476 0.0114514 16711680
0.416842 0.0653516 0.0116731 16711680
0.417094 0.0660867 0.0120714 16711680
0.417219 0.0667895 0.012291 16711680
0.417486 0.0675274 0.0127102 16711680
0.417623 0.0682325 0.0129466 16711680
0.418083 0.0690176 0.0136392 16711680
0.41865 0.0698286 0.0144844 16711680
0.418397 0.0704353 0.0141671 16711680
0.418155 0.0710449 0.0138654 16711680
0.418038 0.0716857 0.013741 16711680
0.418118 0.0723748 0.0138955 16711680
0.418273 0.0730819 0.0141551 16711680
0.418114 0.0737123 0.0139716 16711680
0.418061 0.0743684 0.0139377 16711680
0.417853 0.0749868 0.0136832 16711680
0.417627 0.075601 0.0134029 16711680
0.417474 0.0762334 0.0132282 16711680
0.417356 0.0768739 0.0131007 16711680
0.417555 0.0775905 0.0134234 16711680
0.417501 0.0782465 0.0133889 16711680
0.417578 0.0789334 0.0135381 16711680
0.417785 0.0796508 0.0138717 16711680
0.417918 0.0803506 0.0141019 16711680
0.41817 0.081078 0.0144997 16711680
0.418046 0.0817164 0.0143642 16711680
0.417847 0.0823374 0.0141225 16711680
0.41746 0.0829147 0.0136148 16711680
0.417355 0.083558 0.0135065 16711680
0.416925 0.0841259 0.0129371 16711680
0.416862 0.0847794 0.0128888 16711680
0.416617 0.0853908 0.0125818 16711680
0.416243 0.085973 0.0120933 16711680
0.416429 0.0866835 0.0123965 16711680
0.415843 0.0872176 0.0116063 16711680
0.415745 0.0878635 0.0115077 16711680
0.415265 0.0884229 0.0108685 16711680
0.414973 0.0890253 0.0104948 16711680
0.414946 0.0896878 0.010498 16711680
0.41539 0.0904556 0.0111661 16711680
0.417754 0.0916522 0.0145563 16711680
0.417706 0.0923074 0.0145279 16711680
0.417463 0.0929194 0.0142239 16711680
0.41729 0.0935469 0.0140181 16711680
0.417045 0.094159 0.0137119 16711680
0.41679 0.094769 0.0133913 16711680
0.416156 0.0952962 0.0125329 16711680
0.416224 0.0959775 0.0126693 16711680
0.416285 0.096657 0.0127947 16711680
0.416148 0.0972935 0.0126414 16711680
0.415982 0.0979238 0.0124466 16711680
0.415553 0.0984975 0.0118781 16711680
0.415367 0.099124 0.0116549 16711680
0.414925 0.0996958 0.0110682 16711680
0.414951 0.100368 0.0111458 16711680
0.414891 0.101022 0.0111008 16711680
0.414918 0.101694 0.0111791 16711680
0.414482 0.102268 0.0106004 16711680
0.414174 0.10287 0.010205 16711680
0.414239 0.10355 0.0103358 16711680
0.414332 0.104236 0.0105083 16711680
0.414087 0.104851 0.0102006 16711680
0.414311 0.105564 0.0105572 16711680
0.414167 0.1062 0.0103931 16711680
0.414134 0.106859 0.010386 16711680
0.414079 0.107514 0.0103478 16711680
0.413915 0.108146 0.010155 16711680
0.413771 0.108782 0.00999093 16711680
0.413815 0.109457 0.0100926 16711680
0.414917 0.110345 0.0116913 16711680
0.416305 0.111288 0.013695 16711680
0.41617 0.111925 0.0135425 16711680
0.415177 0.11239 0.012177 16711680
0.414768 0.112973 0.0116371 16711680
0.410235 0.114076 0.00534105 16711680
0.422656 0.0378919 0.0169976 16711680
0.42185 0.0383346 0.0158951 16711680
0.421288 0.0388477 0.0151384 16711680
0.420042 0.0391674 0.0134106 16711680
0.419757 0.039761 0.0130472 16711680
0.419336 0.0403166 0.0124916 16711680
0.420895 0.0414312 0.0147501 16711680
0.421392 0.0422446 0.0154996 16711680
0.421042 0.0428195 0.0150445 16711680
0.420825 0.043432 0.0147785 16711680
0.420746 0.0440832 0.0147089 16711680
0.42052 0.0446935 0.0144302 16711680
0.420099 0.0452497 0.0138735 16711680
0.419915 0.0458723 0.0136547 16711680
0.418893 0.0462636 0.012244 16711680
0.418884 0.0469353 0.0122745 16711680
0.418613 0.0475349 0.0119314 16711680
0.418184 0.0480914 0.0113637 16711680
0.418525 0.0488587 0.011891 16711680
0.418674 0.049573 0.0121448 16711680
0.418734 0.0502627 0.0122715 16711680
0.419031 0.0510167 0.012737 16711680
0.419486 0.0518125 0.0134256 16711680
0.4199 0.0525963 0.0140553 16711680
0.42025 0.053362 0.0145936 16711680
0.420397 0.0540732 0.0148451 16711680
0.420236 0.0547018 0.0146589 16711680
0.419805 0.0552586 0.0140879 16711680
0.419358 0.0558118 0.0134952 16711680
0.418515 0.0562608 0.0123394 16711680
0.418146 0.056836 0.0118576 16711680
0.418337 0.0575587 0.0121703 16711680
0.419348 0.0584958 0.0136478 16711680
0.419449 0.0591937 0.0138336 16711680
0.418943 0.0597331 0.0131571 16711680
0.418495 0.0602881 0.0125623 16711680
0.418365 0.060926 0.0124187 16711680
0.41807 0.0615216 0.0120423 16711680
0.417625 0.0620786 0.011451 16711680
0.417376 0.0626866 0.0111392 16711680
0.417242 0.0633243 0.0109906 16711680
0.417013 0.063938 0.0107079 16711680
0.417075 0.0646257 0.0108368 16711680
0.417 0.0652785 0.0107718 16711680
0.417329 0.0660335 0.0112813 16711680
0.417454 0.0667364 0.0115001 16711680
0.417777 0.0674885 0.0119989 16711680
0.417782 0.0681606 0.0120475 16711680
0.417996 0.0688847 0.012393 16711680
0.418508 0.0696826 0.0131614 16711680
0.41848 0.0703454 0.0131621 16711680
0.418663 0.0710606 0.013464 16711680
0.41883 0.0717711 0.0137413 16711680
0.418937 0.0724667 0.0139349 16711680
0.419025 0.0731573 0.0141008 16711680
0.418841 0.073781 0.01388 16711680
0.418879 0.0744592 0.0139755 16711680
0.41873 0.0750917 0.0138054 16711680
0.418345 0.0756671 0.0132992 16711680
0.418177 0.0762957 0.0131031 16711680
0.418505 0.0770433 0.0136092 16711680
0.418503 0.0777112 0.0136467 16711680
0.418779 0.0784455 0.0140792 16711680
0.418821 0.0791236 0.0141802 16711680
0.41889 0.0798079 0.0143188 16711680
0.418716 0.0804343 0.0141122 16711680
0.418586 0.0810712 0.0139678 16711680
0.418389 0.0816926 0.0137296 16711680
0.418178 0.0823109 0.0134709 16711680
0.418052 0.0829491 0.0133325 16711680
0.417649 0.083523 0.0128019 16711680
0.417446 0.0841439 0.0125551 16711680
0.417204 0.0847557 0.012252 16711680
0.416932 0.0853611 0.0119073 16711680
0.416804 0.0859997 0.0117661 16711680
0.416767 0.0866593 0.0117543 16711680
0.416471 0.0872595 0.0113745 16711680
0.415843 0.0877848 0.0105247 16711680
0.415745 0.0884309 0.0104258 16711680
0.415478 0.089039 0.0100882 16711680
0.417185 0.0900918 0.0125486 16711680
0.418568 0.0910693 0.0145502 16711680
0.418424 0.0917028 0.0143862 16711680
0.418012 0.0922769 0.0138426 16711680
0.417847 0.0929062 0.0136485 16711680
0.41772 0.093544 0.0135081 16711680
0.417251 0.0941065 0.0128835 16711680
0.41709 0.0947374 0.0126956 16711680
0.416664 0.0953104 0.0121326 16711680
0.416457 0.0959315 0.011878 16711680
0.416535 0.0966151 0.0120301 16711680
0.416753 0.0973285 0.0123781 16711680
0.416924 0.0980314 0.0126601 16711680
0.41672 0.0986533 0.0124114 16711680
0.416313 0.0992317 0.011874 16711680
0.415884 0.099806 0.011306 16711680
0.415766 0.100447 0.0111791 16711680
0.415585 0.101075 0.0109625 16711680
0.41553 0.101729 0.0109242 16711680
0.415365 0.102361 0.01073 16711680
0.415097 0.102971 0.010391 16711680
0.415133 0.103644 0.0104816 16711680
0.415027 0.104288 0.0103709 16711680
0.415002 0.104949 0.010376 16711680
0.4149 0.105594 0.0102705 16711680
0.414994 0.106279 0.0104439 16711680
0.414864 0.106918 0.0102991 16711680
0.414589 0.107527 0.00994825 16711680
0.414522 0.108179 0.0098933 16711680
0.414724 0.108886 0.0102198 16711680
0.415552 0.109719 0.0114313 16711680
0.417503 0.110777 0.0142355 16711680
0.417014 0.111342 0.0135821 16711680
0.416502 0.111903 0.0128956 16711680
0.414952 0.112257 0.0107399 16711680
0.410905 0.114788 0.00520563 16711680
0.410861 0.115446 0.00518143 16711680
0.423003 0.0385365 0.0164094 16711680
0.422484 0.0390614 0.0157142 16711680
0.421797 0.0395391 0.0147789 16711680
0.420886 0.0399542 0.0135255 16711680
0.420403 0.0404918 0.012881 16711680
0.420638 0.0412327 0.0132589 16711680
0.421454 0.0421364 0.0144625 16711680
0.421546 0.0428356 0.0146357 16711680
0.421747 0.0435648 0.0149634 16711680
0.421767 0.0442434 0.0150349 16711680
0.421548 0.044855 0.0147654 16711680
0.421518 0.0455195 0.0147651 16711680
0.421023 0.0460553 0.0141044 16711680
0.420625 0.0466182 0.0135801 16711680
0.420438 0.0472398 0.0133564 16711680
0.419868 0.0477564 0.0125877 16711680
0.419323 0.0482808 0.011856 16711680
0.419208 0.048923 0.0117344 16711680
0.419109 0.0495696 0.0116353 16711680
0.418977 0.0502075 0.0114907 16711680
0.419068 0.0509058 0.0116627 16711680
0.419626 0.0517295 0.0124975 16711680
0.420021 0.0525086 0.0131016 16711680
0.420289 0.0532529 0.013525 16711680
0.420856 0.0540767 0.0143733 16711680
0.420894 0.0547583 0.0144696 16711680
0.420952 0.055445 0.0145937 16711680
0.420911 0.0561053 0.014578 16711680
0.420364 0.0566317 0.0138421 16711680
0.420382 0.0573077 0.0139091 16711680
0.420819 0.0580937 0.0145717 16711680
0.42023 0.0586102 0.0137773 16711680
0.419912 0.0591979 0.0133661 16711680
0.419227 0.0596907 0.0124345 16711680
0.419009 0.0603057 0.0121669 16711680
0.418981 0.0609701 0.0121694 16711680
0.418772 0.0615876 0.0119141 16711680
0.418322 0.0621432 0.0113159 16711680
0.418026 0.0627388 0.0109365 16711680
0.417724 0.0633335 0.01055 16711680
0.417639 0.0639838 0.0104709 16711680
0.417565 0.0646367 0.0104065 16711680
0.417565 0.0653086 0.0104486 16711680
0.417763 0.0660303 0.0107708 16711680
0.417816 0.0667151 0.010888 16711680
0.417977 0.0674269 0.0111589 16711680
0.418132 0.0681368 0.0114207 16711680
0.418791 0.0689719 0.0123975 16711680
0.419267 0.0697606 0.0131149 16711680
0.419669 0.0705301 0.0137277 16711680
0.420191 0.0713286 0.014511 16711680
0.420472 0.0720666 0.0149517 16711680
0.420552 0.0727546 0.0151066 16711680
0.420476 0.0734041 0.0150398 16711680
0.420326 0.0740353 0.0148668 16711680
0.420246 0.0746841 0.0147953 16711680
0.420136 0.0753252 0.0146791 16711680
0.420025 0.0759663 0.0145631 16711680
0.419939 0.0766134 0.0144813 16711680
0.419837 0.0772567 0.0143777 16711680
0.419637 0.0778767 0.0141356 16711680
0.419625 0.0785416 0.0141588 16711680
0.419454 0.0791685 0.0139565 16711680
0.419304 0.0798008 0.0137855 16711680
0.419041 0.0804061 0.0134521 16711680
0.418963 0.0810555 0.0133827 16711680
0.418658 0.0816515 0.0129905 16711680
0.418504 0.0822831 0.0128119 16711680
0.418283 0.0828995 0.0125399 16711680
0.4179 0.0834779 0.0120356 16711680
0.417675 0.0840937 0.0117569 16711680
0.41771 0.0847701 0.0118486 16711680
0.417522 0.0853947 0.0116223 16711680
0.417141 0.0859751 0.0111221 16711680
0.417032 0.0866181 0.0110072 16711680
0.416797 0.0872325 0.0107143 16711680
0.416677 0.0878733 0.0105845 16711680
0.41666 0.0885377 0.0106019 16711680
0.419266 0.0897949 0.0143406 16711680
0.419297 0.0904678 0.014425 16711680
0.419031 0.0910737 0.0140872 16711680
0.418831 0.091695 0.013845 16711680
0.41856 0.0923002 0.0134997 16711680
0.418466 0.0929454 0.0134075 16711680
0.417895 0.0934847 0.0126364 16711680
0.4178 0.09413 0.0125424 16711680
0.41737 0.0947014 0.0119717 16711680
0.417074 0.095303 0.0115927 16711680
0.416894 0.0959301 0.0113773 16711680
0.416837 0.0965843 0.011337 16711680
0.417246 0.0973394 0.0119574 16711680
0.417375 0.0980332 0.0121801 16711680
0.417623 0.0987523 0.0125717 16711680
0.417463 0.0993834 0.0123848 16711680
0.416978 0.0999453 0.0117376 16711680
0.416581 0.100526 0.0112144 16711680
0.416335 0.10114 0.010905 16711680
0.41601 0.101737 0.0104837 16711680
0.416075 0.102417 0.0106167 16711680
0.415936 0.103054 0.0104592 16711680
0.415799 0.103691 0.0103043 16711680
0.41581 0.104359 0.0103602 16711680
0.415825 0.105028 0.0104215 16711680
0.415681 0.105664 0.0102572 16711680
0.415815 0.106357 0.0104868 16711680
0.415451 0.106948 0.0100107 16711680
0.415492 0.107621 0.010108 16711680
0.415391 0.108266 0.0100049 16711680
0.41681 0.10922 0.0120556 16711680
0.418165 0.110159 0.0140169 16711680
0.418009 0.11079 0.0138354 16711680
0.417256 0.111302 0.0128073 16711680
0.416027 0.111719 0.0111047 16711680
0.414908 0.11216 0.00955784 16711680
0.411938 0.114903 0.00554454 16711680
0.423754 0.0386237 0.016354 16711680
0.423581 0.0392472 0.016151 16711680
0.423238 0.0398221 0.0157046 16711680
0.422629 0.0403223 0.0148808 16711680
0.422036 0.0408274 0.0140784 16711680
0.421235 0.0412749 0.0129811 16711680
0.421416 0.0419998 0.0132811 16711680
0.421931 0.0428183 0.0140579 16711680
0.422034 0.0435203 0.0142469 16711680
0.422306 0.0442692 0.0146765 16711680
0.422535 0.0450056 0.015045 16711680
0.422285 0.0456086 0.0147318 16711680
0.422254 0.0462723 0.0147297 16711680
0.421924 0.0468537 0.0143033 16711680
0.421638 0.0474474 0.0139387 16711680
0.420974 0.0479373 0.0130346 16711680
0.420542 0.0484921 0.0124632 16711680
0.420256 0.0490872 0.0120988 16711680
0.420126 0.0497249 0.011956 16711680
0.419738 0.0502926 0.0114453 16711680
0.419715 0.0509598 0.0114554 16711680
0.419845 0.0516682 0.011683 16711680
0.420119 0.0524148 0.0121143 16711680
0.420573 0.0532095 0.0128038 16711680
0.42119 0.0540468 0.013724 16711680
0.421671 0.0548468 0.0144508 16711680
0.421924 0.055585 0.0148523 16711680
0.421957 0.0562645 0.0149409 16711680
0.42171 0.0568699 0.0146322 16711680
0.421781 0.0575593 0.0147755 16711680
0.421643 0.0581933 0.0146202 16711680
0.421287 0.0587705 0.0141563 16711680
0.420977 0.05936 0.0137572 16711680
0.420825 0.059991 0.013582 16711680
0.420618 0.0606079 0.0133297 16711680
0.419631 0.0610228 0.0119675 16711680
0.419495 0.0616589 0.0118155 16711680
0.41935 0.0622929 0.011651 16711680
0.419297 0.0629507 0.0116179 16711680
0.419021 0.0635514 0.0112677 16711680
0.418829 0.0641736 0.0110362 16711680
0.418673 0.0648051 0.0108553 16711680
0.418763 0.0654993 0.011025 16711680
0.41934 0.0663164 0.0118876 16711680
0.419775 0.0670968 0.0125481 16711680
0.420555 0.067963 0.0136987 16711680
0.421359 0.068834 0.0148842 16711680
0.421377 0.069507 0.0149502 16711680
0.421367 0.070173 0.0149772 16711680
0.421276 0.070819 0.0148904 16711680
0.421116 0.0714476 0.0147041 16711680
0.421029 0.0720944 0.0146216 16711680
0.420965 0.0727469 0.0145718 16711680
0.420842 0.0733847 0.0144372 16711680
0.420778 0.0740374 0.0143887 16711680
0.420586 0.0746585 0.0141561 16711680
0.420509 0.0753079 0.0140877 16711680
0.420395 0.0759484 0.0139673 16711680
0.420295 0.0765924 0.0138669 16711680
0.420189 0.0772346 0.0137565 16711680
0.420091 0.0778791 0.0136591 16711680
0.419975 0.0785192 0.0135349 16711680
0.419764 0.0791366 0.0132756 16711680
0.419582 0.0797612 0.0130581 16711680
0.419355 0.0803752 0.0127758 16711680
0.419072 0.0809763 0.0124147 16711680
0.419078 0.0816458 0.012465 16711680
0.41873 0.082232 0.0120109 16711680
0.418443 0.0828329 0.0116444 16711680
0.418406 0.0834924 0.0116322 16711680
0.418263 0.0841271 0.0114695 16711680
0.418137 0.0847661 0.011332 16711680
0.417868 0.0853719 0.0109904 16711680
0.41766 0.0859921 0.0107353 16711680
0.417488 0.0866208 0.0105323 16711680
0.417407 0.0872705 0.010458 16711680
0.419053 0.0883133 0.0128371 16711680
0.420182 0.0892361 0.0144808 16711680
0.42009 0.089881 0.0143909 16711680
0.419686 0.0904555 0.0138571 16711680
0.419391 0.0910552 0.0134794 16711680
0.419265 0.0916927 0.0133398 16711680
0.418912 0.0922799 0.0128789 16711680
0.41874 0.0929078 0.012676 16711680
0.418422 0.0935032 0.0122637 16711680
0.418109 0.0941002 0.0118594 16711680
0.417717 0.0946802 0.0113431 16711680
0.417458 0.09529 0.0110164 16711680
0.417315 0.0959252 0.0108532 16711680
0.41715 0.0965558 0.0106591 16711680
0.417357 0.0972674 0.0109942 16711680
0.417533 0.0979716 0.0112835 16711680
0.418178 0.0987765 0.012239 16711680
0.418413 0.0994924 0.0126131 16711680
0.418002 0.10007 0.0120704 16711680
0.417529 0.100634 0.0114383 16711680
0.41721 0.101232 0.0110261 16711680
0.41706 0.101866 0.0108535 16711680
0.417067 0.102533 0.0109031 16711680
0.416451 0.103069 0.0100683 16711680
0.416564 0.103758 0.0102692 16711680
0.416581 0.104428 0.0103333 16711680
0.416479 0.105072 0.0102283 16711680
0.416379 0.105716 0.0101259 16711680
0.416338 0.106374 0.010108 16711680
0.416311 0.107033 0.0101085 16711680
0.416195 0.107675 0.00998437 16711680
0.417526 0.108612 0.0119133 16711680
0.419097 0.109595 0.0141823 16711680
0.418916 0.110221 0.0139654 16711680
0.418053 0.11071 0.01278 16711680
0.417199 0.111201 0.0116072 16711680
0.416426 0.11171 0.0105497 16711680
0.412908 0.113006 0.00567651 16711680
0.412927 0.113677 0.00574338 16711680
0.412446 0.114249 0.00510061 16711680
0.424428 0.0393617 0.016233 16711680
0.424225 0.0399763 0.0159864 16711680
0.423946 0.0405694 0.0156312 16711680
0.423207 0.0410327 0.014621 16711680
0.422496 0.0415047 0.0136499 16711680
0.421683 0.041949 0.0125337 16711680
0.422408 0.0428267 0.0136102 16711680
0.422433 0.043507 0.013689 16711680
0.422734 0.0442642 0.0141609 16711680
0.422754 0.0449423 0.0142314 16711680
0.422839 0.0456384 0.0143948 16711680
0.423072 0.0463755 0.0147704 16711680
0.422994 0.0470258 0.0147008 16711680
0.422949 0.0476855 0.0146801 16711680
0.422535 0.0482437 0.0141327 16711680
0.422099 0.0487962 0.0135534 16711680
0.421399 0.0492771 0.0125982 16711680
0.420534 0.0497144 0.0114096 16711680
0.420832 0.0504683 0.0118754 16711680
0.420818 0.0511374 0.011898 16711680
0.420222 0.0516493 0.0110924 16711680
0.420392 0.052368 0.0113763 16711680
0.42082 0.0531558 0.0120282 16711680
0.421476 0.0540038 0.013005 16711680
0.421638 0.0547189 0.0132787 16711680
0.422429 0.055601 0.0144476 16711680
0.422785 0.0563662 0.014997 16711680
0.422631 0.0569958 0.0148196 16711680
0.422821 0.057716 0.0151312 16711680
0.422867 0.0583983 0.0152397 16711680
0.422595 0.0589967 0.0148937 16711680
0.422358 0.0596048 0.0145988 16711680
0.422377 0.0602797 0.0146675 16711680
0.422291 0.060927 0.0145862 16711680
0.422306 0.0616008 0.01465 16711680
0.42226 0.0622585 0.0146261 16711680
0.422298 0.0629379 0.0147226 16711680
0.422207 0.063584 0.0146348 16711680
0.422257 0.0642661 0.0147475 16711680
0.422234 0.0649293 0.0147562 16711680
0.422236 0.065599 0.014801 16711680
0.422186 0.0662553 0.0147718 16711680
0.422194 0.0669262 0.0148251 16711680
0.422143 0.0675819 0.0147929 16711680
0.422102 0.0682402 0.0147763 16711680
0.421923 0.068864 0.0145639 16711680
0.421885 0.069523 0.0145512 16711680
0.421756 0.0701593 0.0144093 16711680
0.421672 0.0708069 0.0143312 16711680
0.421488 0.0714295 0.01411 16711680
0.42136 0.0720663 0.0139692 16711680
0.42129 0.0727174 0.013911 16711680
0.421117 0.0733433 0.0137064 16711680
0.420972 0.0739762 0.0135421 16711680
0.420959 0.0746412 0.0135642 16711680
0.420854 0.0752838 0.0134561 16711680
0.420708 0.0759167 0.0132905 16711680
0.420508 0.0765363 0.0130464 16711680
0.420392 0.0771766 0.0129232 16711680
0.420324 0.0778284 0.0128677 16711680
0.420113 0.0784459 0.0126088 16711680
0.420044 0.0790975 0.0125517 16711680
0.419878 0.0797259 0.0123558 16711680
0.419612 0.0803309 0.0120193 16711680
0.419613 0.0809991 0.0120609 16711680
0.419408 0.081619 0.0118113 16711680
0.419121 0.0822195 0.0114437 16711680
0.419094 0.0828812 0.0114459 16711680
0.418983 0.0835233 0.0113294 16711680
0.418713 0.0841285 0.0109861 16711680
0.418491 0.0847451 0.0107117 16711680
0.418363 0.0853836 0.01057 16711680
0.418194 0.0860128 0.0103714 16711680
0.419123 0.0868938 0.0117325 16711680
0.421123 0.0880183 0.0146174 16711680
0.420953 0.0886451 0.0144165 16711680
0.420566 0.0892229 0.0139073 16711680
0.420262 0.0898196 0.0135145 16711680
0.420025 0.0904321 0.0132189 16711680
0.419881 0.0910656 0.0130541 16711680
0.419741 0.0917002 0.0128964 16711680
0.41911 0.0922251 0.0120389 16711680
0.418992 0.0928651 0.0119117 16711680
0.418692 0.0934649 0.0115271 16711680
0.418647 0.0941211 0.0115023 16711680
0.418167 0.0946818 0.0108614 16711680
0.418106 0.0953349 0.010815 16711680
0.417898 0.0959556 0.0105587 16711680
0.417645 0.0965669 0.0102396 16711680
0.417754 0.0972571 0.0104347 16711680
0.417886 0.0979521 0.010664 16711680
0.418475 0.098745 0.0115401 16711680
0.419071 0.0995388 0.0124285 16711680
0.419051 0.100199 0.0124393 16711680
0.418903 0.100833 0.0122694 16711680
0.418272 0.101363 0.0114137 16711680
0.417863 0.101942 0.010872 16711680
0.417893 0.102614 0.0109549 16711680
0.417614 0.10322 0.0105981 16711680
0.41769 0.103901 0.0107465 16711680
0.417489 0.104525 0.0105008 16711680
0.417406 0.105173 0.0104235 16711680
0.417383 0.105833 0.0104303 16711680
0.417073 0.106434 0.0100302 16711680
0.417137 0.107112 0.0101604 16711680
0.418321 0.10802 0.0118819 16711680
0.419742 0.108974 0.0139409 16711680
0.419525 0.109593 0.0136728 16711680
0.418783 0.110105 0.0126578 16711680
0.418229 0.110656 0.0119112 16711680
0.417102 0.111093 0.01035 16711680
0.415818 0.1115 0.00856626 16711680
0.415583 0.112118 0.00827146 16711680
0.414328 0.112534 0.00652957 16711680
0.413859 0.113107 0.00590301 16711680
0.413177 0.114305 0.00501406 16711680
0.424831 0.0400218 0.0157251 16711680
0.42495 0.0407278 0.0159369 16711680
0.424724 0.041336 0.0156578 16711680
0.423949 0.0417893 0.0145959 16711680
0.42323 0.0422591 0.0136119 16711680
0.422662 0.0427724 0.0128443 16711680
0.422762 0.0434738 0.0130298 16711680
0.422908 0.0441878 0.013281 16711680
0.423079 0.0449086 0.0135688 16711680
0.423212 0.0456183 0.0138013 16711680
0.423679 0.0464202 0.0145103 16711680
0.423715 0.0471019 0.0146034 16711680
0.424015 0.0478563 0.0150739 16711680
0.423733 0.0484504 0.014715 16711680
0.423589 0.0490824 0.0145522 16711680
0.423191 0.0496449 0.0140263 16711680
0.422693 0.050181 0.0133595 16711680
0.422109 0.0506942 0.0125693 16711680
0.421783 0.0512779 0.0121465 16711680
0.421413 0.0518504 0.0116619 16711680
0.421167 0.0524566 0.0113533 16711680
0.421428 0.0531992 0.0117675 16711680
0.421549 0.0539039 0.0119828 16711680
0.421981 0.0546913 0.012641 16711680
0.422303 0.0554486 0.013142 16711680
0.422915 0.0562823 0.0140567 16711680
0.423146 0.057014 0.0144281 16711680
0.423585 0.0578002 0.0150961 16711680
0.423315 0.058399 0.0147536 16711680
0.423215 0.0590427 0.0146534 16711680
0.423051 0.0596697 0.0144622 16711680
0.422991 0.0603237 0.0144184 16711680
0.422924 0.0609761 0.0143652 16711680
0.42287 0.0616316 0.0143294 16711680
0.423002 0.0623354 0.0145595 16711680
0.422871 0.0629709 0.0144145 16711680
0.422861 0.0636377 0.0144424 16711680
0.422769 0.0642834 0.014354 16711680
0.422781 0.0649555 0.0144122 16711680
0.422676 0.0655978 0.0143048 16711680
0.422682 0.0662683 0.0143548 16711680
0.422604 0.0669174 0.0142853 16711680
0.422592 0.0675832 0.0143105 16711680
0.42244 0.0682136 0.0141356 16711680
0.422388 0.068869 0.0141025 16711680
0.422262 0.0695062 0.0139656 16711680
0.422082 0.0701297 0.0137501 16711680
0.421884 0.0707491 0.0135098 16711680
0.421735 0.0713807 0.013339 16711680
0.42167 0.0720333 0.0132885 16711680
0.42153 0.0726671 0.0131298 16711680
0.421437 0.0733128 0.0130391 16711680
0.421343 0.0739582 0.012947 16711680
0.421166 0.0745832 0.0127357 16711680
0.420947 0.0751984 0.0124655 16711680
0.420892 0.0758533 0.012428 16711680
0.420738 0.0764845 0.0122504 16711680
0.420734 0.077152 0.0122869 16711680
0.420566 0.0777798 0.0120888 16711680
0.420402 0.0784086 0.0118957 16711680
0.420397 0.0790757 0.0119306 16711680
0.420242 0.0797068 0.0117505 16711680
0.420118 0.0803455 0.0116153 16711680
0.420026 0.0809918 0.0115258 16711680
0.41983 0.0816136 0.0112878 16711680
0.419751 0.0822631 0.0112162 16711680
0.419642 0.0829056 0.0111028 16711680
0.419431 0.0835241 0.0108424 16711680
0.419167 0.0841306 0.0105076 16711680
0.419068 0.0847759 0.0104086 16711680
0.41959 0.0855644 0.0111928 16711680
0.421721 0.0867226 0.0142668 16711680
0.421603 0.0873611 0.0141391 16711680
0.421517 0.0880071 0.0140578 16711680
0.42125 0.0886118 0.0137182 16711680
0.421045 0.089231 0.0134678 16711680
0.420681 0.0898143 0.01299 16711680
0.420344 0.0904041 0.0125512 16711680
0.420254 0.09105 0.0124643 16711680
0.419978 0.091654 0.012112 16711680
0.419709 0.0922599 0.0117693 16711680
0.419519 0.0928838 0.0115401 16711680
0.419222 0.0934841 0.0111578 16711680
0.419113 0.0941263 0.0110438 16711680
0.41895 0.0947565 0.0108514 16711680
0.41863 0.0953526 0.0104377 16711680
0.418553 0.0960021 0.0103688 16711680
0.418366 0.0966275 0.0101424 16711680
0.418246 0.0972677 0.0100118 16711680
0.418248 0.0979345 0.010056 16711680
0.418608 0.0986784 0.0106084 16711680
0.419121 0.0994543 0.011378 16711680
0.4195 0.100201 0.011957 16711680
0.419653 0.100898 0.0122161 16711680
0.419556 0.101542 0.0121183 16711680
0.419412 0.102176 0.0119535 16711680
0.418864 0.102725 0.0112144 16711680
0.418839 0.103385 0.0112185 16711680
0.418302 0.103937 0.0104954 16711680
0.418485 0.10464 0.0107948 16711680
0.418429 0.105293 0.0107555 16711680
0.418395 0.105951 0.0107471 16711680
0.41784 0.106501 0.00999808 16711680
0.419337 0.107474 0.0121663 16711680
0.420801 0.108438 0.0142888 16711680
0.42038 0.109014 0.0137292 16711680
0.419773 0.109553 0.0129063 16711680
0.418896 0.110038 0.0116992 16711680
0.418227 0.110567 0.0107881 16711680
0.417333 0.111051 0.00955725 16711680
0.417395 0.111727 0.00968516 16711680
0.416751 0.112263 0.00880933 16711680
0.415996 0.112778 0.00777626 16711680
0.41466 0.113178 0.00591648 16711680
0.414335 0.11378 0.00549507 16711680
0.425554 0.0401006 0.0156305 16711680
0.425672 0.0408064 0.0158424 16711680
0.4256 0.041458 0.0157831 16711680
0.425256 0.0420324 0.0153338 16711680
0.424747 0.042561 0.0146506 16711680
0.423914 0.0429989 0.0135038 16711680
0.423379 0.0435216 0.0127827 16711680
0.423657 0.0442724 0.0132223 16711680
0.423532 0.0449103 0.013087 16711680
0.423793 0.0456557 0.0135033 16711680
0.423721 0.046308 0.013443 16711680
0.423983 0.0470526 0.013859 16711680
0.424328 0.0478197 0.0143944 16711680
0.424677 0.0485874 0.0149367 16711680
0.424777 0.0492859 0.0151217 16711680
0.424489 0.0498779 0.0147524 16711680
0.424081 0.0504377 0.0142131 16711680
0.423604 0.0509792 0.0135747 16711680
0.422735 0.051415 0.0123769 16711680
0.422526 0.0520306 0.0121219 16711680
0.422536 0.0527052 0.0121782 16711680
0.421969 0.0532248 0.0114124 16711680
0.421886 0.0538747 0.0113361 16711680
0.422041 0.0545882 0.0115997 16711680
0.422636 0.0554186 0.0124912 16711680
0.422945 0.0561719 0.0129738 16711680
0.423445 0.0569753 0.0137298 16711680
0.423492 0.0576583 0.01384 16711680
0.423473 0.0583234 0.0138546 16711680
0.423032 0.0588776 0.0132672 16711680
0.422706 0.0594627 0.012845 16711680
0.42267 0.0601238 0.0128362 16711680
0.422817 0.0608325 0.0130882 16711680
