# .PCD v0.7 - Point Cloud Data file format
VERSION 0.7
FIELDS x y z rgb
SIZE 4 4 4 4
TYPE F F F F
COUNT 1 1 1 1
WIDTH 1233
HEIGHT 1
VIEWPOINT 0 0 0 1 0 0 0
POINTS 1233
DATA ascii
0.374372 -0.0647222 0.0141639 16711680
0.374021 -0.0641497 0.0137309 16711680
0.373711 -0.0635609 0.0133538 16711680
0.373556 -0.0629128 0.013186 16711680
0.373483 -0.0622337 0.0131278 16711680
0.373201 -0.0616335 0.0127889 16711680
0.373027 -0.0609925 0.0125945 16711680
0.373059 -0.0602732 0.012679 16711680
0.372901 -0.059626 0.0125067 16711680
0.372787 -0.0589619 0.0123941 16711680
0.372816 -0.0582443 0.0124738 16711680
0.372733 -0.0575688 0.0124029 16711680
0.37273 -0.0568633 0.0124397 16711680
0.372437 -0.0562665 0.0120847 16711680
0.372535 -0.0555235 0.0122577 16711680
0.372526 -0.0548207 0.0122862 16711680
0.37251 -0.0541205 0.0123053 16711680
0.372952 -0.053251 0.0129418 16711680
0.37438 -0.0520177 0.0149093 16711680
0.37506 -0.0510625 0.0158679 16711680
0.374963 -0.0503945 0.0157781 16711680
0.37456 -0.0498392 0.015274 16711680
0.373881 -0.0493845 0.0143983 16711680
0.37356 -0.0487978 0.014006 16711680
0.373345 -0.0481721 0.0137569 16711680
0.373354 -0.0474646 0.0138094 16711680
0.373158 -0.0468319 0.0135854 16711680
0.372985 -0.0461909 0.0133916 16711680
0.372773 -0.0455635 0.0131468 16711680
0.37246 -0.0449726 0.0127646 16711680
0.372132 -0.0443868 0.0123624 16711680
0.371804 -0.0438005 0.0119605 16711680
0.371658 -0.0431486 0.0118036 16711680
0.373234 -0.04188 0.0139694 16711680
0.374769 -0.0406286 0.0160795 16711680
0.374506 -0.0400209 0.0157642 16711680
0.373579 -0.039649 0.0145549 16711680
0.372225 -0.0394277 0.0127684 16711680
0.387183 -0.0320422 0.0330563 16711680
0.386825 -0.031477 0.0326133 16711680
0.386822 -0.0307868 0.032648 16711680
0.386647 -0.030157 0.032451 16711680
0.38652 -0.0295101 0.0323193 16711680
0.386333 -0.0288841 0.0321071 16711680
0.386276 -0.0282127 0.0320694 16711680
0.371484 -0.0312566 0.0122482 16711680
0.370763 -0.0308034 0.0113165 16711680
0.370633 -0.0301457 0.0111815 16711680
0.370642 -0.0294406 0.0112325 16711680
0.371926 -0.0282981 0.0130031 16711680
0.372801 -0.0272979 0.0142217 16711680
0.372589 -0.0266701 0.0139753 16711680
0.372578 -0.0259735 0.0140004 16711680
0.372515 -0.0252949 0.0139546 16711680
0.372308 -0.0246652 0.0137148 16711680
0.372317 -0.0239621 0.0137665 16711680
0.372439 -0.0232209 0.0139712 16711680
0.372077 -0.0226432 0.0135224 16711680
0.371801 -0.0220361 0.0131903 16711680
0.37145 -0.0214541 0.012756 16711680
0.371064 -0.0208832 0.0122757 16711680
0.370815 -0.0202664 0.0119786 16711680
0.370736 -0.0195925 0.011912 16711680
0.370672 -0.0189138 0.0118644 16711680
0.370634 -0.0182262 0.0118535 16711680
0.370718 -0.0174985 0.012006 16711680
0.371192 -0.0166428 0.0126824 16711680
0.371525 -0.015834 0.0131701 16711680
0.37218 -0.0149201 0.0140917 16711680
0.372188 -0.0142194 0.0141412 16711680
0.371866 -0.0136265 0.0137472 16711680
0.371646 -0.0130002 0.01349 16711680
0.371144 -0.0124654 0.012853 16711680
0.371052 -0.011797 0.0127678 16711680
0.370971 -0.0111251 0.0126967 16711680
0.370839 -0.0104695 0.0125581 16711680
0.370635 -0.00983694 0.012323 16711680
0.370495 -0.009184 0.0121725 16711680
0.370405 -0.00851455 0.0120909 16711680
0.370291 -0.00785309 0.0119756 16711680
0.370271 -0.00716132 0.0119882 16711680
0.370082 -0.00652388 0.0117714 16711680
0.370169 -0.00579813 0.0119281 16711680
0.370093 -0.00512451 0.0118644 16711680
0.369971 -0.00446561 0.0117383 16711680
0.370102 -0.00372657 0.0119539 16711680
0.369983 -0.00306675 0.0118322 16711680
0.370018 -0.00235876 0.0119168 16711680
0.370185 -0.00160924 0.0121803 16711680
0.37018 -0.000913799 0.0122128 16711680
0.369953 -0.00028798 0.0119452 16711680
0.369862 0.000380397 0.011861 16711680
0.369961 0.00110784 0.0120329 16711680
0.371369 0.00224015 0.0139667 16711680
0.371509 0.00297841 0.0141926 16711680
0.371447 0.00365436 0.0141474 16711680
0.37073 0.00412896 0.0132204 16711680
0.371003 0.00490811 0.0136268 16711680
0.371057 0.00561956 0.0137374 16711680
0.37057 0.00616604 0.0131209 16711680
0.370072 0.00670937 0.012488 16711680
0.369935 0.00736308 0.0123417 16711680
0.370979 0.00837424 0.0137842 16711680
0.371954 0.00936317 0.015135 16711680
0.371744 0.00999328 0.0148902 16711680
0.370688 0.0103694 0.0135068 16711680
0.370432 0.0109869 0.0132006 16711680
0.378449 -0.0732099 0.0179648 16711680
0.377736 -0.0727843 0.0170425 16711680
0.377279 -0.0722574 0.0164654 16711680
0.376967 -0.0716729 0.0160849 16711680
0.376479 -0.0711567 0.0154675 16711680
0.375869 -0.0706879 0.014684 16711680
0.375389 -0.0701675 0.0140768 16711680
0.37485 -0.0696696 0.0133892 16711680
0.374878 -0.0689505 0.0134692 16711680
0.376363 -0.0676675 0.0155165 16711680
0.376776 -0.066801 0.0161171 16711680
0.376258 -0.0662951 0.0154573 16711680
0.375738 -0.0657889 0.0147966 16711680
0.375615 -0.0651299 0.0146708 16711680
0.374966 -0.0646722 0.0138357 16711680
0.374597 -0.0641067 0.0133779 16711680
0.374453 -0.0634546 0.0132251 16711680
0.374365 -0.0627813 0.013147 16711680
0.374099 -0.0621758 0.0128286 16711680
0.373993 -0.061509 0.012727 16711680
0.373904 -0.0608361 0.012647 16711680
0.373806 -0.0601662 0.0125564 16711680
0.373708 -0.0594964 0.0124654 16711680
0.373679 -0.0588009 0.0124665 16711680
0.373707 -0.0580838 0.0125457 16711680
0.373614 -0.0574126 0.0124604 16711680
0.373683 -0.0566802 0.0125957 16711680
0.373392 -0.0560829 0.0122435 16711680
0.373195 -0.0554503 0.0120182 16711680
0.37327 -0.0547165 0.0121596 16711680
0.373082 -0.0540805 0.0119462 16711680
0.373351 -0.0532746 0.0123513 16711680
0.375092 -0.0519252 0.0147433 16711680
0.375893 -0.0509256 0.0158654 16711680
0.375743 -0.0502777 0.015703 16711680
0.375363 -0.0497141 0.0152303 16711680
0.374824 -0.0492083 0.0145433 16711680
0.374229 -0.0487223 0.0137808 16711680
0.373955 -0.0481187 0.0134501 16711680
0.373859 -0.0474496 0.0133613 16711680
0.373902 -0.0467298 0.0134605 16711680
0.37341 -0.0462046 0.0128367 16711680
0.373381 -0.0455112 0.0128374 16711680
0.373205 -0.0448708 0.0126405 16711680
0.372721 -0.0443415 0.0120276 16711680
0.372518 -0.0437104 0.0117941 16711680
0.372217 -0.0431142 0.0114285 16711680
0.373673 -0.0418886 0.0134333 16711680
0.375446 -0.0405516 0.0158672 16711680
0.375171 -0.0399483 0.0155362 16711680
0.3883 -0.0331904 0.0333754 16711680
0.387876 -0.0326494 0.0328426 16711680
0.387597 -0.0320567 0.0325053 16711680
0.387316 -0.0314643 0.0321658 16711680
0.387073 -0.0308584 0.0318769 16711680
0.387076 -0.0301661 0.0319198 16711680
0.387112 -0.0294621 0.0320085 16711680
0.387054 -0.0287913 0.0319693 16711680
0.386796 -0.0281903 0.0316603 16711680
0.371272 -0.0314898 0.0108349 16711680
0.371102 -0.0308462 0.0106449 16711680
0.370675 -0.0302907 0.0101093 16711680
0.37021 -0.0297479 0.0095222 16711680
0.371633 -0.0285571 0.011481 16711680
0.372488 -0.0275627 0.0126746 16711680
0.37318 -0.0266258 0.0136471 16711680
0.373248 -0.0259024 0.0137787 16711680
0.372933 -0.0253096 0.0133932 16711680
0.372901 -0.0246204 0.0133896 16711680
0.373451 -0.0237343 0.0141709 16711680
0.373541 -0.0230046 0.0143316 16711680
0.373221 -0.0224134 0.0139391 16711680
0.372572 -0.0219323 0.0131031 16711680
0.372468 -0.0212675 0.0130029 16711680
0.372042 -0.0207107 0.0124671 16711680
0.371819 -0.0200852 0.0122067 16711680
0.371541 -0.0194783 0.0118703 16711680
0.371503 -0.0187909 0.0118589 16711680
0.37135 -0.018142 0.011692 16711680
0.371245 -0.0174769 0.0115902 16711680
0.371257 -0.0167735 0.0116448 16711680
0.371821 -0.0158882 0.012445 16711680
0.37217 -0.0150747 0.0129542 16711680
0.372723 -0.0141949 0.0137393 16711680
0.3731 -0.0133738 0.014286 16711680
0.372549 -0.012856 0.0135825 16711680
0.37216 -0.012285 0.0130966 16711680
0.371748 -0.0117206 0.0125815 16711680
0.371707 -0.0110358 0.0125651 16711680
0.371867 -0.0102863 0.0128187 16711680
0.371378 -0.00974602 0.0121995 16711680
0.371356 -0.00905526 0.0122082 16711680
0.371138 -0.0084275 0.0119529 16711680
0.371037 -0.00776175 0.0118564 16711680
0.370925 -0.00709996 0.0117433 16711680
0.370897 -0.00641099 0.011745 16711680
0.370937 -0.00570077 0.0118372 16711680
0.370771 -0.00505584 0.0116527 16711680
0.370809 -0.00434649 0.0117421 16711680
0.370827 -0.00364333 0.0118058 16711680
0.370911 -0.00291967 0.0119579 16711680
0.370969 -0.00220451 0.0120747 16711680
0.370877 -0.00153661 0.0119894 16711680
0.370795 -0.000865728 0.0119168 16711680
0.370827 -0.000159174 0.0119982 16711680
0.370434 0.000415027 0.0115074 16711680
0.370657 0.00118083 0.0118463 16711680
0.37126 0.00206405 0.0126982 16711680
0.372309 0.00308365 0.014149 16711680
0.372186 0.00374043 0.0140213 16711680
0.371871 0.00433832 0.0136352 16711680
0.371736 0.00499174 0.0134916 16711680
0.372053 0.00578362 0.0139573 16711680
0.371665 0.00635973 0.0134733 16711680
0.371167 0.00690264 0.0128402 16711680
0.370526 0.00740281 0.0120149 16711680
0.371283 0.00832736 0.0130733 16711680
0.372483 0.0093841 0.0147264 16711680
0.372586 0.0101085 0.0149031 16711680
0.372119 0.0106617 0.0143136 16711680
0.371066 0.0110393 0.0129335 16711680
0.370863 0.0116726 0.0126977 16711680
0.367141 0.0133463 0.00783837 16711680
0.378865 -0.0732285 0.0173981 16711680
0.378391 -0.0727088 0.0167984 16711680
0.377994 -0.0721584 0.0163026 16711680
0.377691 -0.0715705 0.0159347 16711680
0.377004 -0.0711328 0.0150464 16711680
0.376427 -0.0706511 0.0143075 16711680
0.375719 -0.0702196 0.0133915 16711680
0.375707 -0.0695165 0.0134168 16711680
0.376893 -0.0683483 0.0150616 16711680
0.377248 -0.0675038 0.0155843 16711680
0.377416 -0.0667327 0.0158523 16711680
0.376632 -0.0663293 0.014834 16711680
0.376403 -0.0657113 0.0145653 16711680
0.376216 -0.0650766 0.0143541 16711680
0.375626 -0.0645968 0.013597 16711680
0.375422 -0.0639681 0.0133629 16711680
0.375063 -0.063399 0.0129175 16711680
0.374974 -0.0627259 0.0128391 16711680
0.37478 -0.062093 0.0126178 16711680
0.374761 -0.0613935 0.0126333 16711680
0.37473 -0.0606987 0.0126323 16711680
0.37447 -0.0600904 0.0123227 16711680
0.37459 -0.0593387 0.0125256 16711680
0.374428 -0.0586935 0.0123473 16711680
0.374457 -0.0579761 0.0124284 16711680
0.374439 -0.0572767 0.0124452 16711680
0.374328 -0.0566124 0.0123359 16711680
0.374226 -0.0559446 0.0122392 16711680
0.374161 -0.0552631 0.0121918 16711680
0.373975 -0.0546266 0.0119812 16711680
0.373994 -0.0539137 0.0120484 16711680
0.3753 -0.0527239 0.0138547 16711680
0.376553 -0.0515561 0.0155885 16711680
0.376422 -0.0509011 0.0154521 16711680
0.376167 -0.0502919 0.0151479 16711680
0.375898 -0.0496872 0.0148259 16711680
0.375752 -0.0490375 0.0146692 16711680
0.375651 -0.0483711 0.0145733 16711680
0.375142 -0.047854 0.0139253 16711680
0.374832 -0.0472636 0.0135467 16711680
0.374529 -0.04667 0.0131786 16711680
0.374279 -0.0460573 0.0128804 16711680
0.374132 -0.0454067 0.0127232 16711680
0.374088 -0.0447189 0.0127041 16711680
0.373922 -0.0440752 0.0125203 16711680
0.373485 -0.043529 0.0119704 16711680
0.37315 -0.0429456 0.0115583 16711680
0.37394 -0.0419587 0.0126654 16711680
0.375679 -0.0406334 0.0150557 16711680
0.389329 -0.0336777 0.0336152 16711680
0.388674 -0.0332194 0.0327696 16711680
0.388253 -0.0326773 0.0322404 16711680
0.388095 -0.0320418 0.0320666 16711680
0.387862 -0.0314325 0.0317918 16711680
0.387531 -0.0308574 0.0313848 16711680
0.387414 -0.0302072 0.0312656 16711680
0.387465 -0.0294979 0.0313745 16711680
0.387922 -0.0286474 0.0320301 16711680
0.38757 -0.0280792 0.0315948 16711680
0.387004 -0.0275851 0.0308702 16711680
0.386299 -0.0271388 0.0299569 16711680
0.3863 -0.026447 0.0299977 16711680
0.371535 -0.0294515 0.0101807 16711680
0.371429 -0.0287856 0.0100776 16711680
0.371499 -0.0280598 0.010211 16711680
0.373303 -0.0267413 0.0126871 16711680
0.373103 -0.0261093 0.0124561 16711680
0.373521 -0.0252667 0.0130601 16711680
0.373285 -0.0246468 0.0127814 16711680
0.374867 -0.023411 0.0149571 16711680
0.375248 -0.0225839 0.0155098 16711680
0.374339 -0.0221918 0.0143235 16711680
0.373897 -0.0216417 0.0137663 16711680
0.373566 -0.021054 0.0133584 16711680
0.373045 -0.0205292 0.0126953 16711680
0.372931 -0.0198681 0.01258 16711680
0.372613 -0.0192748 0.0121905 16711680
0.372546 -0.0185976 0.0121399 16711680
0.372261 -0.017993 0.0117943 16711680
0.371975 -0.0173883 0.0114474 16711680
0.371942 -0.0166996 0.0114431 16711680
0.372259 -0.015896 0.0119096 16711680
0.372589 -0.0150886 0.012394 16711680
0.37303 -0.0142455 0.0130281 16711680
0.373702 -0.0133274 0.0139745 16711680
0.373952 -0.0125484 0.0143509 16711680
0.373232 -0.0120859 0.0134181 16711680
0.372943 -0.0114822 0.0130677 16711680
0.372642 -0.0108822 0.012701 16711680
0.372715 -0.0101609 0.0128388 16711680
0.372565 -0.00951186 0.0126752 16711680
0.372344 -0.00888571 0.0124154 16711680
0.372162 -0.00824663 0.0122092 16711680
0.371909 -0.00763032 0.0119064 16711680
0.37199 -0.00690681 0.012055 16711680
0.371903 -0.00623724 0.0119765 16711680
0.371835 -0.00556171 0.0119233 16711680
0.371585 -0.00494388 0.0116251 16711680
0.371749 -0.00419477 0.0118849 16711680
0.371751 -0.00349703 0.0119271 16711680
0.371863 -0.00276506 0.0121164 16711680
0.371847 -0.00207347 0.0121337 16711680
0.371753 -0.00140655 0.0120454 16711680
0.371708 -0.000724286 0.0120232 16711680
0.3716 -6.16014e-05 0.0119166 16711680
0.371514 0.000607878 0.0118394 16711680
0.371469 0.0012902 0.0118179 16711680
0.371476 0.00198835 0.0118656 16711680
0.372816 0.00309837 0.013711 16711680
0.373279 0.00393584 0.0143735 16711680
0.372624 0.00442868 0.0135288 16711680
0.372601 0.00511628 0.0135365 16711680
0.372746 0.0058552 0.0137705 16711680
0.37248 0.00646803 0.0134491 16711680
0.372184 0.00707221 0.0130882 16711680
0.371594 0.00758743 0.0123311 16711680
0.371379 0.0082171 0.01208 16711680
0.372864 0.00936064 0.01412 16711680
0.373619 0.0102819 0.0151765 16711680
0.373091 0.0108159 0.014503 16711680
0.372296 0.0112703 0.0134685 16711680
0.371163 0.0116249 0.0119801 16711680
0.380074 -0.0736398 0.0178641 16711680
0.379223 -0.0732698 0.0167537 16711680
0.379053 -0.0726302 0.0165654 16711680
0.378649 -0.0720827 0.0160599 16711680
0.378175 -0.0715624 0.0154591 16711680
0.37745 -0.0711397 0.0145187 16711680
0.376874 -0.0706577 0.0137802 16711680
0.376356 -0.0701522 0.0131211 16711680
0.37721 -0.069112 0.0143187 16711680
0.378118 -0.0680521 0.01559 16711680
0.378197 -0.0673154 0.0157382 16711680
0.377674 -0.0668118 0.0150723 16711680
0.377185 -0.0662948 0.0144513 16711680
0.376758 -0.065753 0.0139148 16711680
0.376637 -0.065093 0.0137928 16711680
0.376221 -0.0645465 0.0132701 16711680
0.376129 -0.0638749 0.0131879 16711680
0.376007 -0.063215 0.0130643 16711680
0.37569 -0.0626295 0.0126767 16711680
0.375541 -0.0619799 0.0125152 16711680
0.375423 -0.0613182 0.0123971 16711680
0.375379 -0.0606284 0.0123788 16711680
0.375378 -0.0599221 0.0124196 16711680
0.375287 -0.0592506 0.0123365 16711680
0.375315 -0.0585336 0.0124166 16711680
0.375223 -0.0578623 0.0123332 16711680
0.375164 -0.0571786 0.0122945 16711680
0.374997 -0.0565355 0.0121092 16711680
0.375213 -0.0557491 0.0124421 16711680
0.374833 -0.0551851 0.01197 16711680
0.374743 -0.0545133 0.0118885 16711680
0.375898 -0.0533782 0.0134929 16711680
0.377062 -0.0522423 0.0151076 16711680
0.377259 -0.0514656 0.0154163 16711680
0.37683 -0.0509211 0.0148759 16711680
0.376491 -0.0503428 0.0144579 16711680
0.376399 -0.0496731 0.0143747 16711680
0.376384 -0.0489752 0.0143952 16711680
0.376412 -0.0482618 0.0144738 16711680
0.376681 -0.0474606 0.0148776 16711680
0.37608 -0.0469771 0.0141054 16711680
0.375505 -0.0464832 0.0133692 16711680
0.375119 -0.0459202 0.0128872 16711680
0.374949 -0.0452784 0.0126977 16711680
0.374764 -0.0446417 0.012489 16711680
0.37456 -0.0440122 0.0122524 16711680
0.374438 -0.0433525 0.0121287 16711680
0.374248 -0.0427176 0.0119117 16711680
0.374487 -0.0419282 0.0122765 16711680
0.375276 -0.0409428 0.0133836 16711680
0.390375 -0.0341581 0.0338792 16711680
0.389809 -0.0336688 0.033154 16711680
0.389411 -0.033119 0.0326564 16711680
0.388985 -0.0325792 0.032119 16711680
0.388695 -0.0319904 0.0317674 16711680
0.388391 -0.0314066 0.031395 16711680
0.387943 -0.0308726 0.0308304 16711680
0.387812 -0.0302272 0.0306925 16711680
0.388218 -0.0293937 0.0312808 16711680
0.388462 -0.0286176 0.0316495 16711680
0.38832 -0.0279764 0.0314976 16711680
0.38781 -0.0274632 0.0308479 16711680
0.386995 -0.0270552 0.0297859 16711680
0.385988 -0.026713 0.0284635 16711680
0.385892 -0.0260541 0.0283736 16711680
0.386428 -0.0251774 0.0291371 16711680
0.373385 -0.0275722 0.0116301 16711680
0.373314 -0.0268955 0.0115743 16711680
0.376816 -0.0222094 0.0165045 16711680
0.376076 -0.0217614 0.0155449 16711680
0.374951 -0.0214424 0.0140638 16711680
0.374507 -0.0208929 0.0135036 16711680
0.373822 -0.0204235 0.0126182 16711680
0.373636 -0.0197865 0.0124066 16711680
0.373469 -0.0191433 0.0122199 16711680
0.373373 -0.0184762 0.0121297 16711680
0.373145 -0.0178528 0.0118613 16711680
0.373131 -0.0171584 0.0118815 16711680
0.373152 -0.0164526 0.0119493 16711680
0.372936 -0.015825 0.0116971 16711680
0.372807 -0.0151685 0.0115625 16711680
0.373201 -0.0143403 0.0121349 16711680
0.373827 -0.0134372 0.0130193 16711680
0.374718 -0.0124485 0.0142618 16711680
0.37457 -0.0117999 0.014101 16711680
0.373983 -0.0112939 0.0133473 16711680
0.3735 -0.0107533 0.0127347 16711680
0.37351 -0.0100529 0.0127864 16711680
0.373274 -0.0094316 0.0125079 16711680
0.373383 -0.00869939 0.0126935 16711680
0.373146 -0.00807849 0.0124125 16711680
0.372966 -0.00743917 0.0122083 16711680
0.372854 -0.00677791 0.0120959 16711680
0.372694 -0.00613195 0.0119189 16711680
0.372717 -0.00542745 0.0119897 16711680
0.372537 -0.00478768 0.0117859 16711680
0.372618 -0.00406519 0.011934 16711680
0.372517 -0.00340044 0.0118366 16711680
0.372506 -0.00270751 0.0118599 16711680
0.37237 -0.00205362 0.011716 16711680
0.372498 -0.00131729 0.0119264 16711680
0.372458 -0.000633478 0.0119117 16711680
0.372398 4.36902e-05 0.011869 16711680
0.37234 0.000721782 0.01183 16711680
0.372258 0.00139222 0.0117581 16711680
0.372044 0.00202167 0.0115075 16711680
0.373294 0.003104 0.0132333 16711680
0.374455 0.00415686 0.0148387 16711680
0.373909 0.00468269 0.0141406 16711680
0.373438 0.0052321 0.0135434 16711680
0.373258 0.00587106 0.0133381 16711680
0.373538 0.00665092 0.0137548 16711680
0.372851 0.00713545 0.012866 16711680
0.372495 0.00772172 0.0124247 16711680
0.372117 0.00830147 0.0119526 16711680
0.373286 0.00934952 0.0135684 16711680
0.374421 0.0103853 0.0151372 16711680
0.374095 0.0109799 0.0147362 16711680
0.373378 0.0114572 0.0138067 16711680
0.37285 0.0119923 0.013133 16711680
0.380306 -0.0737309 0.0170492 16711680
0.379591 -0.0733073 0.0161216 16711680
0.379464 -0.0726508 0.0159916 16711680
0.379114 -0.0720822 0.0155584 16711680
0.378632 -0.0715649 0.0149472 16711680
0.377871 -0.0711561 0.0139583 16711680
0.377624 -0.0705454 0.0136652 16711680
0.377632 -0.069835 0.0137178 16711680
0.378721 -0.0687038 0.0152346 16711680
0.378822 -0.0679582 0.015414 16711680
0.378662 -0.0673145 0.0152382 16711680
0.378021 -0.0668569 0.0144112 16711680
0.378003 -0.0661575 0.0144287 16711680
0.377605 -0.0656052 0.0139301 16711680
0.377452 -0.0649579 0.0137644 16711680
0.377029 -0.0644138 0.0132339 16711680
0.376736 -0.06382 0.0128777 16711680
0.376466 -0.0632167 0.0125538 16711680
0.376513 -0.0624923 0.0126591 16711680
0.37643 -0.0618178 0.0125873 16711680
0.37634 -0.0611457 0.0125072 16711680
0.376258 -0.0604705 0.0124381 16711680
0.376139 -0.0598095 0.0123181 16711680
0.376206 -0.0590783 0.0124496 16711680
0.376049 -0.0584319 0.0122776 16711680
0.376021 -0.0577365 0.0122815 16711680
0.375919 -0.0570693 0.012184 16711680
0.375725 -0.0564362 0.0119635 16711680
0.375935 -0.0556522 0.0122886 16711680
0.375523 -0.0551006 0.0117724 16711680
0.37639 -0.0540721 0.0129874 16711680
0.377939 -0.0527915 0.0151258 16711680
0.377806 -0.0521375 0.0149871 16711680
0.377615 -0.051505 0.0147693 16711680
0.377249 -0.0509371 0.0143142 16711680
0.376786 -0.0504045 0.0137281 16711680
0.376827 -0.0496856 0.0138254 16711680
0.376705 -0.0490271 0.0137008 16711680
0.37688 -0.0482596 0.0139787 16711680
0.377462 -0.0473439 0.0148067 16711680
0.37735 -0.0466822 0.014696 16711680
0.377012 -0.0461028 0.0142796 16711680
0.376484 -0.0455921 0.0136057 16711680
0.376283 -0.0449625 0.0133734 16711680
0.376094 -0.0443279 0.0131588 16711680
0.375618 -0.0437973 0.0125543 16711680
0.375364 -0.0431855 0.0122523 16711680
0.37506 -0.042592 0.0118805 16711680
0.375212 -0.0418341 0.0121276 16711680
0.391534 -0.0345968 0.0342984 16711680
0.391229 -0.0340153 0.0339261 16711680
0.390657 -0.0335287 0.0331914 16711680
0.390151 -0.0330181 0.0325459 16711680
0.389718 -0.0324806 0.0319999 16711680
0.389341 -0.0319231 0.0315289 16711680
0.389013 -0.0313476 0.0311258 16711680
0.388515 -0.0308318 0.0304911 16711680
0.388316 -0.0302103 0.0302615 16711680
0.388809 -0.029346 0.030969 16711680
0.388936 -0.0286109 0.0311798 16711680
0.389529 -0.0277131 0.0320226 16711680
0.388703 -0.0273108 0.030944 16711680
0.38815 -0.0268125 0.0302348 16711680
0.386956 -0.0265354 0.0286596 16711680
0.386322 -0.026063 0.0278419 16711680
0.377742 -0.0220517 0.0166335 16711680
0.377241 -0.0215238 0.0159953 16711680
0.376283 -0.0211489 0.0147398 16711680
0.375403 -0.0207468 0.013589 16711680
0.374943 -0.0202025 0.0130066 16711680
0.374563 -0.0196307 0.0125334 16711680
0.374383 -0.0189922 0.0123289 16711680
0.374229 -0.0183447 0.0121603 16711680
0.374063 -0.017701 0.011976 16711680
0.373987 -0.0170276 0.011912 16711680
0.373876 -0.0163654 0.0118024 16711680
0.373763 -0.0157042 0.0116887 16711680
0.373556 -0.0150738 0.0114485 16711680
0.373672 -0.0143373 0.0116442 16711680
0.374091 -0.0135017 0.0122503 16711680
0.374852 -0.0125551 0.0133187 16711680
0.37542 -0.0116727 0.0141258 16711680
0.37514 -0.0110674 0.0137861 16711680
0.374681 -0.0105198 0.0132046 16711680
0.374629 -0.00983956 0.0131742 16711680
0.374635 -0.00914103 0.013221 16711680
0.374325 -0.00854427 0.0128415 16711680
0.374288 -0.00785935 0.012831 16711680
0.373812 -0.0073154 0.0122269 16711680
0.373771 -0.00663173 0.0122106 16711680
0.373583 -0.00599521 0.0119948 16711680
0.373592 -0.0052954 0.0120471 16711680
0.373556 -0.00461027 0.0120375 16711680
0.373487 -0.00393569 0.0119833 16711680
0.373446 -0.00325248 0.011966 16711680
0.373368 -0.00258094 0.0118992 16711680
0.373272 -0.00191483 0.011809 16711680
0.373296 -0.00121114 0.0118804 16711680
0.373347 -0.000499159 0.0119884 16711680
0.373181 0.00014475 0.011803 16711680
0.373199 0.000845879 0.011865 16711680
0.372956 0.00146601 0.0115757 16711680
0.372877 0.00213739 0.0115089 16711680
0.373546 0.00303999 0.0124514 16711680
0.375018 0.00418881 0.0144769 16711680
0.374958 0.00486431 0.0144356 16711680
0.374668 0.00546885 0.0140826 16711680
0.374267 0.00603941 0.0135782 16711680
0.374278 0.00673684 0.0136327 16711680
0.373605 0.00722525 0.0127614 16711680
0.373465 0.00787681 0.012611 16711680
0.372891 0.00839666 0.011874 16711680
0.374038 0.00943801 0.0134612 16711680
0.375319 0.0105179 0.0152295 16711680
0.37517 0.0111656 0.0150677 16711680
0.374425 0.0116341 0.0141 16711680
0.373057 0.0119169 0.0122907 16711680
0.381546 -0.0741289 0.0175592 16711680
0.38093 -0.0736669 0.016766 16711680
0.380564 -0.0731058 0.0163106 16711680
0.380305 -0.0725017 0.0160012 16711680
0.37974 -0.0720178 0.0152774 16711680
0.379095 -0.0715649 0.0144436 16711680
0.378639 -0.0710368 0.013867 16711680
0.378265 -0.0704762 0.0134013 16711680
0.379186 -0.0694092 0.0146928 16711680
0.379617 -0.0685349 0.0153191 16711680
0.3795 -0.0678745 0.0152026 16711680
0.378964 -0.0673769 0.0145172 16711680
0.378608 -0.0668087 0.0140764 16711680
0.378455 -0.0661618 0.0139101 16711680
0.378387 -0.065482 0.0138593 16711680
0.377903 -0.0649624 0.0132447 16711680
0.377647 -0.0643547 0.0129385 16711680
0.377575 -0.0636759 0.0128832 16711680
0.377372 -0.0630474 0.0126495 16711680
0.377142 -0.0624293 0.0123785 16711680
0.377164 -0.0617147 0.0124497 16711680
0.377007 -0.0610681 0.0122793 16711680
0.376933 -0.0603904 0.0122198 16711680
0.376986 -0.0596644 0.0123332 16711680
0.376733 -0.0590544 0.0120313 16711680
0.376931 -0.0582737 0.0123419 16711680
0.376894 -0.057582 0.0123334 16711680
0.376807 -0.0569094 0.0122569 16711680
0.376931 -0.0561579 0.0124651 16711680
0.376713 -0.0555343 0.0122113 16711680
0.376988 -0.0547267 0.012625 16711680
0.378571 -0.0534317 0.0148119 16711680
0.378623 -0.0527087 0.0149246 16711680
0.378433 -0.0520764 0.0147072 16711680
0.378054 -0.0515137 0.0142347 16711680
0.377631 -0.0509666 0.0137033 16711680
0.377461 -0.050326 0.0135133 16711680
0.377285 -0.0496874 0.0133156 16711680
0.377073 -0.0490617 0.01307 16711680
0.377071 -0.048359 0.0131083 16711680
0.377589 -0.0474663 0.0138507 16711680
0.378131 -0.0465655 0.0146263 16711680
0.378311 -0.0457978 0.0149107 16711680
0.377971 -0.0452198 0.01449 16711680
0.377619 -0.0446452 0.0140549 16711680
0.377179 -0.0441024 0.0134995 16711680
0.376798 -0.0435377 0.0130242 16711680
0.376275 -0.0430238 0.0123564 16711680
0.376121 -0.0423766 0.0121877 16711680
0.375161 -0.0420186 0.0109279 16711680
0.391553 -0.0347524 0.033214 16711680
0.392023 -0.0338942 0.0338913 16711680
0.391517 -0.0333845 0.0332451 16711680
0.39097 -0.0328887 0.0325441 16711680
0.39056 -0.0323435 0.0320287 16711680
0.390099 -0.0318159 0.0314441 16711680
0.389633 -0.0312894 0.0308534 16711680
0.38919 -0.0307545 0.0302925 16711680
0.388886 -0.0301699 0.0299213 16711680
0.389488 -0.0292675 0.0307764 16711680
0.390401 -0.0282575 0.0320519 16711680
0.39054 -0.0275191 0.03228 16711680
0.389682 -0.0271284 0.0311575 16711680
0.38912 -0.0266336 0.030436 16711680
0.387974 -0.0263404 0.0289243 16711680
0.387316 -0.0258768 0.0280737 16711680
0.386349 -0.0255191 0.0268041 16711680
0.386438 -0.0247965 0.0269637 16711680
0.386255 -0.0241673 0.026756 16711680
0.377969 -0.0214333 0.0158565 16711680
0.377343 -0.020947 0.0150492 16711680
0.376494 -0.0205349 0.0139399 16711680
0.376118 -0.019963 0.0134709 16711680
0.37544 -0.0194916 0.0125935 16711680
0.3752 -0.0188735 0.0123073 16711680
0.375001 -0.0182413 0.0120776 16711680
0.374874 -0.0175849 0.0119458 16711680
0.374671 -0.0169536 0.0117114 16711680
0.374521 -0.0163046 0.0115483 16711680
0.374513 -0.015609 0.0115761 16711680
0.37459 -0.0148854 0.0117196 16711680
0.374404 -0.0142482 0.0115082 16711680
0.374522 -0.0135115 0.0117068 16711680
0.375121 -0.0126178 0.0125569 16711680
0.375878 -0.0116734 0.0136211 16711680
0.376113 -0.0109006 0.0139774 16711680
0.375662 -0.0103505 0.0134075 16711680
0.375348 -0.00975573 0.0130222 16711680
0.3753 -0.00907478 0.0129961 16711680
0.375225 -0.00840262 0.0129334 16711680
0.37506 -0.00775927 0.0127494 16711680
0.374759 -0.00715944 0.0123817 16711680
0.374591 -0.00651681 0.0121934 16711680
0.374423 -0.00587383 0.0120062 16711680
0.374355 -0.00519896 0.0119537 16711680
0.374273 -0.00452882 0.0118815 16711680
0.37451 -0.00375754 0.0122404 16711680
0.374249 -0.00314409 0.0119268 16711680
0.374205 -0.00246176 0.0119071 16711680
0.374145 -0.00178477 0.0118649 16711680
0.374149 -0.0010879 0.0119085 16711680
0.374007 -0.000436723 0.0117552 16711680
0.374146 0.000302345 0.0119821 16711680
0.374036 0.000963628 0.0118731 16711680
0.374039 0.00165996 0.0119162 16711680
0.373703 0.00225064 0.0114995 16711680
0.37402 0.00304416 0.0119674 16711680
0.375366 0.00415456 0.0138254 16711680
0.376375 0.00515929 0.015229 16711680
0.375308 0.00552419 0.0138243 16711680
0.375146 0.0061681 0.0136439 16711680
0.374926 0.00679463 0.0133862 16711680
0.37466 0.00740695 0.0130646 16711680
0.3743 0.00799116 0.012617 16711680
0.374175 0.00864702 0.0124867 16711680
0.375897 0.00986192 0.0148524 16711680
0.376603 0.0107674 0.0158453 16711680
0.376217 0.0113428 0.0153618 16711680
0.375238 0.0117403 0.0140764 16711680
0.374068 0.0120822 0.012534 16711680
0.373286 0.0125417 0.0115161 16711680
0.382026 -0.0741216 0.0170817 16711680
0.381609 -0.0735812 0.016557 16711680
0.381241 -0.0730209 0.0160992 16711680
0.381018 -0.0724029 0.0158384 16711680
0.380329 -0.0719682 0.0149449 16711680
0.379669 -0.0715214 0.0140901 16711680
0.379091 -0.0710413 0.0133479 16711680
0.379477 -0.0701832 0.0139134 16711680
0.380218 -0.069187 0.0149615 16711680
0.380441 -0.0683941 0.0153062 16711680
0.380071 -0.0678326 0.0148456 16711680
0.379291 -0.0674296 0.0138295 16711680
0.379364 -0.0666954 0.0139697 16711680
0.379086 -0.0660971 0.013634 16711680
0.378901 -0.0654624 0.0134248 16711680
0.378593 -0.0648753 0.0130479 16711680
0.378516 -0.0641984 0.0129864 16711680
0.378128 -0.0636415 0.012501 16711680
0.378231 -0.0628958 0.0126829 16711680
0.378069 -0.062252 0.012504 16711680
0.377955 -0.0615897 0.0123906 16711680
0.37788 -0.0609123 0.0123308 16711680
0.377853 -0.0602168 0.0123359 16711680
0.377746 -0.0595516 0.0122328 16711680
0.377739 -0.0588488 0.0122647 16711680
0.377665 -0.0581714 0.0122055 16711680
0.377563 -0.0575044 0.0121089 16711680
0.377552 -0.0568036 0.0121344 16711680
0.377434 -0.0561426 0.0120165 16711680
0.377688 -0.0553427 0.0124015 16711680
0.379023 -0.0541387 0.0142554 16711680
0.379444 -0.0532783 0.0148672 16711680
0.37923 -0.0526549 0.0146182 16711680
0.378966 -0.0520498 0.0143018 16711680
0.378572 -0.051493 0.0138074 16711680
0.378436 -0.0508398 0.013665 16711680
0.37806 -0.0502757 0.0131949 16711680
0.377731 -0.0496934 0.0127904 16711680
0.377536 -0.0490617 0.0125668 16711680
0.377473 -0.0483811 0.0125232 16711680
0.377571 -0.0476421 0.0126965 16711680
0.378264 -0.0466858 0.0136774 16711680
0.378867 -0.0457634 0.0145363 16711680
0.379009 -0.04501 0.0147693 16711680
0.378814 -0.0443791 0.0145462 16711680
0.378372 -0.0438378 0.0139871 16711680
0.378153 -0.0432152 0.013731 16711680
0.377874 -0.042614 0.0133932 16711680
0.391814 -0.0348216 0.0324569 16711680
0.392418 -0.0339153 0.0333164 16711680
0.392018 -0.0333677 0.0328145 16711680
0.391702 -0.0327898 0.0324262 16711680
0.391276 -0.0322506 0.0318885 16711680
0.391115 -0.0316173 0.0317094 16711680
0.390582 -0.0311149 0.0310274 16711680
0.389896 -0.0306659 0.0301375 16711680
0.389775 -0.0300175 0.030013 16711680
0.391142 -0.028847 0.0319057 16711680
0.39164 -0.027983 0.0326202 16711680
0.39123 -0.0274367 0.0321047 16711680
0.39047 -0.0270122 0.0311137 16711680
0.38972 -0.0265828 0.0301381 16711680
0.388705 -0.0262446 0.0288023 16711680
0.38782 -0.0258601 0.0276423 16711680
0.387671 -0.0252201 0.0274799 16711680
0.387332 -0.0246453 0.0270609 16711680
0.386807 -0.0241342 0.026389 16711680
0.386338 -0.0236033 0.0257931 16711680
0.386436 -0.0228777 0.0259656 16711680
0.385355 -0.0225553 0.0245399 16711680
0.384658 -0.0221003 0.0236349 16711680
0.381038 -0.0212473 0.01885 16711680
0.379821 -0.020963 0.0172414 16711680
0.378531 -0.0207016 0.0155338 16711680
0.377373 -0.0203942 0.0140046 16711680
0.376876 -0.0198631 0.0133719 16711680
0.376428 -0.0193152 0.0128046 16711680
0.376354 -0.0186418 0.0127443 16711680
0.375929 -0.0180854 0.0122086 16711680
0.375738 -0.017451 0.0119886 16711680
0.375513 -0.0168272 0.0117244 16711680
0.375583 -0.0161059 0.0118586 16711680
0.375399 -0.0154684 0.0116497 16711680
0.375524 -0.0147293 0.0118586 16711680
0.375277 -0.0141128 0.0115629 16711680
0.375242 -0.0134264 0.0115554 16711680
0.375491 -0.0126473 0.0119321 16711680
0.376135 -0.0117399 0.0128431 16711680
0.376876 -0.0108019 0.0138861 16711680
0.376831 -0.0101202 0.0138655 16711680
0.376128 -0.0096522 0.0129523 16711680
0.375786 -0.00906643 0.0125287 16711680
0.37606 -0.00828141 0.0129399 16711680
0.37588 -0.00764331 0.012735 16711680
0.37578 -0.00697941 0.0126384 16711680
0.375695 -0.00631061 0.0125625 16711680
0.37542 -0.00570232 0.0122304 16711680
0.375066 -0.00511903 0.0117905 16711680
0.375174 -0.00438878 0.0119748 16711680
0.375128 -0.00370726 0.0119526 16711680
0.37495 -0.0030677 0.0117509 16711680
0.375037 -0.00234431 0.0119081 16711680
0.374862 -0.00170404 0.0117092 16711680
0.374931 -0.000986487 0.0118427 16711680
0.375036 -0.000258297 0.0120232 16711680
0.37497 0.000416249 0.0119728 16711680
0.374846 0.00107276 0.0118442 16711680
0.374796 0.00175226 0.0118152 16711680
0.374607 0.0023886 0.0115983 16711680
0.374698 0.00311175 0.0117602 16711680
0.375853 0.00416353 0.013363 16711680
0.377096 0.00524005 0.0150826 16711680
0.377181 0.00595894 0.0152367 16711680
0.376918 0.00657079 0.0149193 16711680
0.376682 0.00719133 0.0146394 16711680
0.376734 0.0078997 0.014748 16711680
0.376545 0.00853473 0.0145314 16711680
0.37717 0.00941685 0.0154152 16711680
0.377285 0.0101435 0.0156091 16711680
0.377149 0.0107941 0.0154641 16711680
0.37688 0.0114044 0.0151374 16711680
0.376142 0.0118743 0.0141779 16711680
0.375131 0.0122632 0.0128487 16711680
0.374247 0.0126916 0.0116916 16711680
0.383577 -0.0743943 0.0180167 16711680
0.382538 -0.0741021 0.016646 16711680
0.382123 -0.0735608 0.0161247 16711680
0.381853 -0.0729616 0.0158004 16711680
0.381505 -0.0723934 0.0153682 16711680
0.380846 -0.071947 0.0145149 16711680
0.380278 -0.0714641 0.0137849 16711680
0.379911 -0.0709014 0.0133286 16711680
0.380652 -0.0699042 0.0143777 16711680
0.381635 -0.0688136 0.0157565 16711680
0.381202 -0.0682774 0.0152099 16711680
0.380283 -0.0679301 0.0140024 16711680
0.380064 -0.0673091 0.0137473 16711680
0.380151 -0.0665696 0.0139071 16711680
0.379901 -0.0659608 0.0136089 16711680
0.379602 -0.0653706 0.0132443 16711680
0.379319 -0.0647739 0.0129015 16711680
0.379143 -0.0641357 0.0127044 16711680
0.379153 -0.0634258 0.0127602 16711680
0.378934 -0.062804 0.0125047 16711680
0.378849 -0.062131 0.0124302 16711680
0.378804 -0.0614425 0.0124109 16711680
0.378715 -0.0607706 0.0123322 16711680
0.378555 -0.060126 0.0121565 16711680
0.378574 -0.0594133 0.0122241 16711680
0.378494 -0.0587383 0.0121571 16711680
0.378416 -0.0580629 0.0120919 16711680
0.378286 -0.0574068 0.011957 16711680
0.378285 -0.056702 0.0119973 16711680
0.378315 -0.0559858 0.0120798 16711680
0.379161 -0.0549641 0.0132701 16711680
0.380121 -0.0539009 0.0146159 16711680
0.380011 -0.053239 0.0145077 16711680
0.379677 -0.0526603 0.0140958 16711680
0.379632 -0.0519739 0.014076 16711680
0.379283 -0.0514006 0.013643 16711680
0.378954 -0.0508192 0.0132378 16711680
0.378786 -0.0501782 0.0130503 16711680
0.378448 -0.0495997 0.0126323 16711680
0.378085 -0.0490299 0.0121806 16711680
0.377982 -0.0483642 0.0120826 16711680
0.377977 -0.0476628 0.0121164 16711680
0.378067 -0.0469264 0.0122808 16711680
0.378902 -0.0459189 0.0134553 16711680
0.379616 -0.0449568 0.0144656 16711680
0.379829 -0.0441781 0.0147948 16711680
0.379807 -0.0434847 0.0148065 16711680
0.379443 -0.0429156 0.0143526 16711680
0.393418 -0.0344102 0.0335224 16711680
0.393246 -0.0337817 0.0333296 16711680
0.392979 -0.0331873 0.0330067 16711680
0.392544 -0.0326523 0.032456 16711680
0.392281 -0.0320554 0.0321398 16711680
0.392134 -0.0314175 0.03198 16711680
0.391336 -0.0310093 0.0309376 16711680
0.390901 -0.0304723 0.0303869 16711680
0.391693 -0.0295031 0.0315015 16711680
0.392404 -0.0285636 0.0325062 16711680
0.392138 -0.0279675 0.0321854 16711680
0.391602 -0.0274655 0.031498 16711680
0.390959 -0.0270001 0.0306656 16711680
0.390063 -0.0266218 0.0294905 16711680
0.389268 -0.0262074 0.0284514 16711680
0.388226 -0.0258772 0.0270786 16711680
0.387738 -0.0253543 0.0264566 16711680
0.388031 -0.0245614 0.0268939 16711680
0.387585 -0.0240237 0.0263277 16711680
0.386858 -0.0235817 0.0253814 16711680
0.385979 -0.0231906 0.0242293 16711680
0.385447 -0.0226797 0.0235484 16711680
0.385215 -0.0220662 0.0232728 16711680
0.381612 -0.0212081 0.018507 16711680
0.38075 -0.0208041 0.0173782 16711680
0.379638 -0.0204833 0.0159104 16711680
0.378772 -0.0200782 0.0147762 16711680
0.377814 -0.0197029 0.0135168 16711680
0.377398 -0.0191448 0.012992 16711680
0.376982 -0.0185861 0.0124679 16711680
0.376741 -0.0179685 0.0121814 16711680
0.376596 -0.0173188 0.0120244 16711680
0.376521 -0.0166457 0.0119629 16711680
0.376414 -0.0159834 0.0118575 16711680
0.376395 -0.0152919 0.0118716 16711680
0.376375 -0.0146008 0.0118842 16711680
0.376211 -0.0139572 0.0117018 16711680
0.376201 -0.013263 0.011728 16711680
0.376082 -0.0126046 0.0116063 16711680
0.376525 -0.0117627 0.0122463 16711680
0.377435 -0.0107694 0.0135194 16711680
0.37771 -0.00998387 0.0139322 16711680
0.377413 -0.00938454 0.0135691 16711680
0.376621 -0.00894517 0.0125345 16711680
0.376906 -0.0081569 0.0129607 16711680
0.377144 -0.00738442 0.0133225 16711680
0.376564 -0.00687516 0.0125761 16711680
0.376288 -0.00626773 0.0122417 16711680
0.376067 -0.00564247 0.0119816 16711680
0.375929 -0.00499061 0.0118338 16711680
0.376012 -0.00426829 0.0119858 16711680
0.375773 -0.00364867 0.0117003 16711680
0.375795 -0.00294581 0.01177 16711680
0.375777 -0.0022561 0.0117842 16711680
0.375881 -0.00152794 0.0119641 16711680
0.375954 -0.000809669 0.0121024 16711680
0.375796 -0.000164151 0.0119276 16711680
0.375985 0.000590026 0.0122228 16711680
0.375837 0.0012385 0.0120611 16711680
0.375804 0.00192297 0.0120556 16711680
0.37582 0.00262251 0.0121161 16711680
0.375379 0.0031803 0.0115576 16711680
0.375994 0.00406498 0.0124296 16711680
0.37746 0.00521126 0.0144551 16711680
0.378142 0.00611371 0.0154173 16711680
0.378197 0.00682253 0.0155298 16711680
0.378091 0.00748211 0.0154251 16711680
0.377973 0.00813794 0.0153037 16711680
0.377882 0.00880209 0.0152192 16711680
0.377854 0.0094853 0.0152196 16711680
0.377742 0.0101433 0.0151074 16711680
0.377578 0.0107852 0.0149237 16711680
0.377424 0.0114304 0.0147536 16711680
0.376817 0.0119396 0.013971 16711680
0.376254 0.0124627 0.0132474 16711680
0.374808 0.0127223 0.0113285 16711680
0.383149 -0.074043 0.0163461 16711680
0.382893 -0.0734389 0.0160402 16711680
0.3826 -0.0728492 0.015684 16711680
0.382153 -0.0723199 0.0151186 16711680
0.381382 -0.0719182 0.0141113 16711680
0.380832 -0.0714282 0.0134056 16711680
0.381185 -0.070583 0.0139278 16711680
0.382007 -0.0695545 0.0150886 16711680
0.382207 -0.0687708 0.0154028 16711680
0.381737 -0.0682491 0.014806 16711680
0.380912 -0.0678654 0.0137252 16711680
0.380925 -0.0671546 0.0137846 16711680
0.381004 -0.0664183 0.013934 16711680
0.380563 -0.0658837 0.0133764 16711680
0.380193 -0.065321 0.0129155 16711680
0.380003 -0.0646885 0.012699 16711680
0.379896 -0.0640239 0.0125959 16711680
0.379718 -0.0633867 0.0123951 16711680
0.3796 -0.0627262 0.012277 16711680
0.379522 -0.0620505 0.0122126 16711680
0.379527 -0.061343 0.0122613 16711680
0.379355 -0.0607032 0.0120695 16711680
0.379338 -0.0600045 0.0120873 16711680
0.379238 -0.0593372 0.0119932 16711680
0.379129 -0.0586732 0.0118873 16711680
0.379198 -0.0579422 0.0120224 16711680
0.379228 -0.0572258 0.0121056 16711680
0.378951 -0.0566255 0.0117702 16711680
0.379487 -0.0557193 0.0125408 16711680
0.38063 -0.0545866 0.0141356 16711680
0.380751 -0.053838 0.0143423 16711680
0.380555 -0.0532084 0.0141165 16711680
0.380111 -0.0526707 0.0135553 16711680
0.380088 -0.0519762 0.0135653 16711680
0.379918 -0.0513363 0.0133758 16711680
0.37955 -0.0507696 0.0129168 16711680
0.37945 -0.0501037 0.0128213 16711680
0.379222 -0.0494846 0.0125536 16711680
0.378917 -0.0488938 0.0121801 16711680
0.378654 -0.0482872 0.0118644 16711680
0.378595 -0.0476055 0.0118256 16711680
0.378616 -0.0468949 0.0118947 16711680
0.379218 -0.0459721 0.0127544 16711680
0.379452 -0.0451847 0.013113 16711680
0.380208 -0.0442081 0.0141809 16711680
0.380693 -0.0433308 0.0148811 16711680
0.394105 -0.0343267 0.0333447 16711680
0.393832 -0.0337348 0.0330136 16711680
0.393625 -0.0331188 0.0327733 16711680
0.393403 -0.0325082 0.0325115 16711680
0.393189 -0.0318945 0.0322609 16711680
0.392967 -0.0312835 0.0319991 16711680
0.392691 -0.0306913 0.0316646 16711680
0.392825 -0.0299541 0.0318869 16711680
0.392727 -0.0292992 0.0317935 16711680
0.392676 -0.0286275 0.0317646 16711680
0.392387 -0.0280392 0.0314128 16711680
0.392085 -0.0274555 0.0310419 16711680
0.391406 -0.0270028 0.03016 16711680
0.39029 -0.0267013 0.0286846 16711680
0.389728 -0.0262056 0.0279626 16711680
0.388819 -0.0258299 0.0267673 16711680
0.3887 -0.0251794 0.0266465 16711680
0.389107 -0.0243475 0.027239 16711680
0.388202 -0.0239681 0.0260502 16711680
0.387484 -0.0235232 0.0251154 16711680
0.386403 -0.0232017 0.0236878 16711680
0.385768 -0.0227264 0.0228651 16711680
0.385567 -0.0221017 0.0226334 16711680
0.385461 -0.0214449 0.022529 16711680
0.384516 -0.021073 0.021286 16711680
0.382648 -0.0210125 0.0187906 16711680
0.382 -0.0205367 0.0179516 16711680
0.380944 -0.0201978 0.0165579 16711680
0.379837 -0.0198747 0.0150955 16711680
0.378916 -0.0194873 0.013886 16711680
0.378181 -0.0190367 0.012928 16711680
0.377861 -0.018446 0.0125343 16711680
0.377535 -0.0178573 0.0121313 16711680
0.37735 -0.0172209 0.0119212 16711680
0.377199 -0.0165733 0.0117564 16711680
0.377074 -0.0159172 0.0116261 16711680
0.377131 -0.0152007 0.0117434 16711680
0.377165 -0.014492 0.0118297 16711680
0.376962 -0.0138616 0.0115937 16711680
0.377128 -0.0131099 0.0118586 16711680
0.37686 -0.0125004 0.0115353 16711680
0.377201 -0.011692 0.0120375 16711680
0.377854 -0.0107825 0.0129629 16711680
0.378516 -0.0098713 0.0139002 16711680
0.37817 -0.00928801 0.0134709 16711680
0.377786 -0.00871682 0.0129894 16711680
0.377719 -0.00804293 0.0129374 16711680
0.377912 -0.00728515 0.0132389 16711680
0.377734 -0.00664714 0.0130365 16711680
0.377359 -0.00607198 0.0125676 16711680
0.376956 -0.00550544 0.0120604 16711680
0.376697 -0.00489235 0.0117491 16711680
0.376833 -0.00415328 0.0119734 16711680
0.376884 -0.00344175 0.0120816 16711680
0.376639 -0.00282428 0.0117881 16711680
0.376755 -0.00209227 0.0119848 16711680
0.376837 -0.00137132 0.0121355 16711680
0.376689 -0.000723034 0.0119739 16711680
0.376693 -2.70009e-05 0.0120182 16711680
0.376611 0.0006423 0.0119474 16711680
0.376663 0.00135314 0.0120569 16711680
0.376672 0.00205016 0.0121073 16711680
0.376609 0.00272515 0.0120621 16711680
0.376512 0.00338918 0.011969 16711680
0.376606 0.00411245 0.0121357 16711680
0.377541 0.00509474 0.0134422 16711680
0.378396 0.00605094 0.0146402 16711680
0.378676 0.00682905 0.015058 16711680
0.378468 0.00745738 0.0148151 16711680
0.37811 0.00804001 0.0143685 16711680
0.377689 0.00860405 0.0138375 16711680
0.378186 0.0094471 0.0145488 16711680
0.378069 0.0101037 0.01443 16711680
0.377927 0.0107524 0.0142759 16711680
0.377865 0.0114256 0.0142311 16711680
0.377537 0.0120186 0.0138254 16711680
0.377067 0.0125691 0.0132266 16711680
0.376283 0.0130263 0.0122023 16711680
0.384363 -0.0744492 0.0168258 16711680
0.383635 -0.0740334 0.0158769 16711680
0.383501 -0.073381 0.0157367 16711680
0.383065 -0.072848 0.0151858 16711680
0.382683 -0.0722935 0.0147069 16711680
0.382005 -0.0718549 0.0138266 16711680
0.381524 -0.0713381 0.0132141 16711680
0.382213 -0.070361 0.014194 16711680
0.382799 -0.0694253 0.0150344 16711680
0.382703 -0.0687576 0.0149462 16711680
0.381983 -0.0683337 0.0140084 16711680
0.381799 -0.0677001 0.0137997 16711680
0.381664 -0.0670471 0.0136579 16711680
0.381649 -0.0663472 0.0136805 16711680
0.381441 -0.0657227 0.0134387 16711680
0.38095 -0.0652072 0.0128125 16711680
0.380786 -0.0645648 0.0126319 16711680
0.380609 -0.0639277 0.0124321 16711680
0.380367 -0.063315 0.0121455 16711680
0.38047 -0.0625702 0.0123268 16711680
0.380324 -0.0619206 0.0121708 16711680
0.380259 -0.0612401 0.0121243 16711680
0.380343 -0.0605032 0.0122797 16711680
0.380338 -0.0598001 0.0123149 16711680
0.379955 -0.0592408 0.0118352 16711680
0.379922 -0.0585479 0.0118334 16711680
0.380147 -0.0577582 0.012181 16711680
0.379914 -0.0571417 0.0119052 16711680
0.380136 -0.0563533 0.0122497 16711680
0.381325 -0.0552022 0.0139091 16711680
0.381669 -0.0543699 0.014419 16711680
0.381584 -0.0536992 0.014344 16711680
0.381051 -0.0531957 0.0136604 16711680
0.380787 -0.052591 0.0133436 16711680
0.380719 -0.0519135 0.0132921 16711680
0.38048 -0.0512993 0.0130084 16711680
0.380183 -0.0507064 0.0126461 16711680
0.380004 -0.0500697 0.0124433 16711680
0.379798 -0.0494427 0.0122049 16711680
0.379622 -0.0488046 0.0120066 16711680
0.379523 -0.0481377 0.0119144 16711680
0.379532 -0.0474316 0.0119673 16711680
0.379377 -0.0467855 0.011798 16711680
0.379372 -0.0460845 0.011833 16711680
0.37989 -0.0451933 0.0125782 16711680
0.380234 -0.0443661 0.0130877 16711680
0.380681 -0.0435024 0.0137361 16711680
0.38996 -0.0380543 0.0264761 16711680
0.394436 -0.0343707 0.0326835 16711680
0.394248 -0.0337483 0.0324678 16711680
0.394112 -0.0331071 0.0323235 16711680
0.393994 -0.0324595 0.032203 16711680
0.393775 -0.0318477 0.0319453 16711680
0.393551 -0.0312372 0.031682 16711680
0.393391 -0.0306043 0.0315042 16711680
0.393311 -0.0299428 0.031436 16711680
0.393097 -0.0293288 0.0311846 16711680
0.39292 -0.0287012 0.0309846 16711680
0.392725 -0.0280802 0.0307592 16711680
0.392311 -0.0275353 0.0302371 16711680
0.391676 -0.0270672 0.0294139 16711680
0.390895 -0.0266491 0.0283927 16711680
0.390128 -0.0262249 0.0273906 16711680
0.389454 -0.0257676 0.026515 16711680
0.390041 -0.0248733 0.0273522 16711680
0.389375 -0.0244123 0.0264877 16711680
0.388724 -0.0239454 0.025643 16711680
0.387923 -0.0235291 0.0245948 16711680
0.386997 -0.0231546 0.0233768 16711680
0.386331 -0.02269 0.0225114 16711680
0.386126 -0.0220669 0.0222738 16711680
0.386511 -0.0212429 0.0228364 16711680
0.385852 -0.0207745 0.0219805 16711680
0.384352 -0.0205899 0.019984 16711680
0.383013 -0.0203493 0.0182041 16711680
0.382073 -0.0199716 0.0169678 16711680
0.380965 -0.0196494 0.0155028 16711680
0.380035 -0.0192659 0.0142798 16711680
0.379121 -0.0188758 0.013078 16711680
0.378677 -0.0183271 0.0125153 16711680
0.378309 -0.0177525 0.0120556 16711680
0.378172 -0.0171008 0.011909 16711680
0.378056 -0.0164417 0.0117923 16711680
0.378058 -0.0157438 0.0118344 16711680
0.377844 -0.0151171 0.0115843 16711680
0.377742 -0.0144537 0.0114851 16711680
0.377846 -0.0137222 0.0116663 16711680
0.377935 -0.012996 0.0118272 16711680
0.377853 -0.0123261 0.0117555 16711680
0.377877 -0.0116216 0.0118279 16711680
0.378004 -0.0108836 0.0120404 16711680
0.378936 -0.00988397 0.0133461 16711680
0.379122 -0.00912818 0.0136381 16711680
0.378612 -0.00859836 0.0129845 16711680
0.378552 -0.00792208 0.0129436 16711680
0.378416 -0.00727054 0.0127988 16711680
0.378434 -0.00656974 0.0128617 16711680
0.378189 -0.00595298 0.0125697 16711680
0.378096 -0.00528768 0.0124824 16711680
0.377694 -0.00472102 0.0119756 16711680
0.377656 -0.00403774 0.011964 16711680
0.377533 -0.00338146 0.0118372 16711680
0.377571 -0.00267434 0.0119281 16711680
0.377484 -0.00200686 0.0118495 16711680
0.377765 -0.00122359 0.0122693 16711680
0.377505 -0.000610769 0.0119562 16711680
0.377553 9.90033e-05 0.0120611 16711680
0.377465 0.000765771 0.0119805 16711680
0.377494 0.00146905 0.0120586 16711680
0.377314 0.00210738 0.0118545 16711680
0.377438 0.00284013 0.0120621 16711680
0.377431 0.00353163 0.0120906 16711680
0.377281 0.00417936 0.0119275 16711680
0.37792 0.00507021 0.012833 16711680
0.378322 0.00588715 0.0134175 16711680
0.378852 0.00674254 0.0141752 16711680
0.378656 0.00737461 0.0139478 16711680
0.378048 0.00788122 0.0131627 16711680
0.377497 0.00840575 0.0124538 16711680
0.378309 0.00934565 0.0135951 16711680
0.378454 0.0100814 0.0138293 16711680
0.37843 0.010766 0.0138359 16711680
0.37849 0.0114758 0.0139563 16711680
0.37836 0.0121283 0.0138192 16711680
0.377952 0.0126973 0.0133045 16711680
0.377019 0.0131094 0.0120771 16711680
0.385758 -0.0747817 0.017554 16711680
0.384788 -0.0744637 0.0162743 16711680
0.384382 -0.0739199 0.0157635 16711680
0.384344 -0.0732298 0.0157536 16711680
0.38389 -0.0727045 0.015177 16711680
0.383265 -0.0722459 0.0143685 16711680
0.38274 -0.0717477 0.013694 16711680
0.382479 -0.0711443 0.0133811 16711680
0.38333 -0.0701036 0.0145836 16711680
0.383611 -0.0692881 0.0150087 16711680
0.38326 -0.0687205 0.0145731 16711680
0.382445 -0.068334 0.0135045 16711680
0.382511 -0.0676028 0.0136366 16711680
0.382442 -0.066924 0.0135857 16711680
0.382238 -0.0662985 0.0133487 16711680
0.381962 -0.0656999 0.0130159 16711680
0.381799 -0.0650578 0.0128359 16711680
0.381529 -0.064457 0.0125092 16711680
0.381406 -0.0637991 0.0123838 16711680
0.381336 -0.0631205 0.012331 16711680
0.381235 -0.0624543 0.0122352 16711680
0.381183 -0.0617689 0.012207 16711680
0.381096 -0.0610972 0.0121304 16711680
0.381184 -0.0603588 0.0122921 16711680
0.380879 -0.0597703 0.0119182 16711680
