# .PCD v0.7 - Point Cloud Data file format
VERSION 0.7
FIELDS x y z
SIZE 4 4 4
TYPE F F F
COUNT 1 1 1
WIDTH 1379
HEIGHT 1
VIEWPOINT 0 0 0 1 0 0 0
POINTS 1379
DATA ascii
0.31262079 0.042603277 0.040350437
0.31278902 0.043559462 0.039453864
0.31333393 0.042291194 0.040134311
0.31383586 0.043672919 0.03964138
0.31228113 0.040472731 0.043229342
0.31346726 0.040620506 0.043585539
0.30678451 0.04504247 0.038663268
0.307015 0.045667022 0.037844658
0.30759257 0.04497245 0.037463665
0.30754653 0.044580802 0.038140457
0.30763152 0.045616999 0.036957324
0.30762658 0.046727687 0.037484884
0.30716294 0.046399593 0.0380162
0.30863562 0.044807952 0.037279923
0.30893838 0.045724109 0.036910057
0.30959409 0.04447642 0.037724733
0.30881304 0.046394497 0.036749482
0.30808917 0.046706222 0.036956191
0.30868876 0.047477625 0.037132323
0.30851883 0.04797706 0.038557887
0.30911773 0.047860816 0.037104964
0.30658802 0.044775374 0.039518416
0.30620861 0.04446657 0.040151477
0.3069914 0.045788378 0.038906217
0.30699158 0.045915008 0.039995432
0.30711257 0.044418454 0.039069653
0.30765492 0.046637326 0.039703488
0.30760115 0.046751291 0.040726542
0.30752605 0.04743208 0.040627122
0.30818391 0.047329098 0.039248586
0.30866092 0.047562629 0.040916443
0.30969542 0.048689172 0.037800908
0.30916965 0.04869622 0.0382514
0.30660534 0.049668074 0.03948164
0.30723023 0.04876101 0.040251732
0.3077746 0.048185691 0.040920258
0.30641872 0.050673574 0.039242864
0.30900991 0.048213184 0.040244102
0.30917001 0.048821434 0.039341807
0.30980468 0.049536422 0.039016485
0.30993664 0.049690679 0.040266156
0.30921638 0.04838495 0.041582465
0.30993146 0.049117446 0.04135561
0.30960578 0.049517363 0.042042911
0.3099966 0.050276637 0.039242148
0.3099001 0.050627515 0.042387962
0.31054491 0.044566751 0.037791848
0.31011081 0.045515023 0.037250817
0.31138051 0.044630751 0.03771925
0.31141821 0.0455277 0.037390947
0.31022757 0.046589226 0.03738153
0.31048384 0.0476944 0.037682354
0.3117364 0.04680562 0.038130522
0.31161261 0.047475085 0.037971735
0.31216419 0.04468289 0.037583947
0.31368184 0.04455509 0.038350463
0.31353778 0.04556796 0.038162947
0.31295589 0.046607867 0.038532019
0.3130483 0.047674447 0.038633466
0.31232285 0.044149429 0.03887701
0.31342494 0.044275194 0.039131641
0.31070071 0.048790082 0.037935138
0.31016093 0.049491465 0.038360238
0.31186408 0.048229441 0.03827095
0.31021982 0.049878567 0.041697979
0.31114751 0.050409481 0.039554238
0.31108373 0.051215857 0.040557504
0.31050807 0.050515115 0.04095304
0.31072676 0.050687969 0.042305827
0.310179 0.051385552 0.04271841
0.31135035 0.051398918 0.041969299
0.31271809 0.049940273 0.040387273
0.31134987 0.051522404 0.043054819
0.31441623 0.040583059 0.042566895
0.31487238 0.041952491 0.042019606
0.31580806 0.042041361 0.042073369
0.31537664 0.043900669 0.040434003
0.3153463 0.042629853 0.041501641
0.31522542 0.043297872 0.041346431
0.31644368 0.042627186 0.040664077
0.31672859 0.042822346 0.042102098
0.31611717 0.043376058 0.041346908
0.31770182 0.043615043 0.042196274
0.31419212 0.040660411 0.043381333
0.31499934 0.040153921 0.044372439
0.31791079 0.042402595 0.043555021
0.31533694 0.04445982 0.03928709
0.31456923 0.046500668 0.039416552
0.31442255 0.047163665 0.039229631
0.31705779 0.044161171 0.041400552
0.31669551 0.045468628 0.040942192
0.31629151 0.04676719 0.04043293
0.3162868 0.047461718 0.040419698
0.31747293 0.046910465 0.040789485
0.31673777 0.046173811 0.040986538
0.3162989 0.048285767 0.041516423
0.31792217 0.051676512 0.045642018
0.31734467 0.051671028 0.046021342
0.31971258 0.049752772 0.045682907
0.31886697 0.050947577 0.044633985
0.3188588 0.051638603 0.044616342
0.3196305 0.050870538 0.043395638
0.31961265 0.050487522 0.044103187
0.31970006 0.051579237 0.043473482
0.3192631 0.051605284 0.044025064
0.31844899 0.050788358 0.0455724
0.31836623 0.051652133 0.045099616
0.31918365 0.05032599 0.045028687
0.32009262 0.049021095 0.045070052
0.32050225 0.04974395 0.045021236
0.32205003 0.048522651 0.045303583
0.32174084 0.049553327 0.045456469
0.32060283 0.050618537 0.043503702
0.32035834 0.051602855 0.043192983
0.30675697 0.065728277 0.042735338
0.30708301 0.067069933 0.042029738
0.30649379 0.061625645 0.046797931
0.30708945 0.06128709 0.046440959
0.30768079 0.063837022 0.043878078
0.30619407 0.062603459 0.046423554
0.30730802 0.062720686 0.046687365
0.30800235 0.064020529 0.045348525
0.30822676 0.063257247 0.044546962
0.30835843 0.062554687 0.046518642
0.3083691 0.063403696 0.045800209
0.30822939 0.063490868 0.046711445
0.30609232 0.061311275 0.047397375
0.30751926 0.062071592 0.046950817
0.30679452 0.063423082 0.047138572
0.30795538 0.063549817 0.047459722
0.30686986 0.065057009 0.042880297
0.30708987 0.064408123 0.043154836
0.30758286 0.066014379 0.044816017
0.30762285 0.064635128 0.044881344
0.30803579 0.064143628 0.046469092
0.30805439 0.065418497 0.045394421
0.30792546 0.066663951 0.044140458
0.30820978 0.065566093 0.046661973
0.30813092 0.066821039 0.045469999
0.30926615 0.067633301 0.045753837
0.30927908 0.067750111 0.046849132
0.30723488 0.065016896 0.04872942
0.30792534 0.065852433 0.049552202
0.30657649 0.06638062 0.048996091
0.3076418 0.067292094 0.050269008
0.30838495 0.064909562 0.046882153
0.30873096 0.064750955 0.048382461
0.30876827 0.065797091 0.048414469
0.30835304 0.06478785 0.049004018
0.30856866 0.065870762 0.049250841
0.308902 0.066748284 0.047485173
0.30849606 0.066432998 0.048077583
0.30903894 0.067814872 0.04763782
0.30888048 0.067550406 0.048528433
0.3082754 0.066559412 0.049426973
0.30884576 0.067657247 0.049563229
0.30844778 0.067343771 0.050163746
0.3186568 0.052732572 0.042180777
0.31933093 0.052759439 0.041918755
0.31712943 0.05345577 0.043565989
0.31774819 0.052676722 0.045418084
0.31728679 0.052697137 0.045939267
0.31743056 0.053645253 0.045018911
0.31875095 0.052530393 0.043387175
0.31825194 0.052509159 0.044588208
0.31941271 0.052207977 0.043114185
0.32010937 0.052240044 0.042880416
0.32445532 0.049826398 0.042807698
0.32557732 0.049893238 0.042556703
0.324983 0.051080436 0.041264892
0.32442215 0.050448544 0.042215228
0.32501543 0.051780164 0.041298032
0.32470104 0.051487617 0.04200393
0.32528043 0.050455347 0.041638613
0.3259477 0.051173687 0.041365027
0.326599 0.050629228 0.042176008
0.32636887 0.051960737 0.041878462
0.32272208 0.047857895 0.045049071
0.32346582 0.046517491 0.044889688
0.32475239 0.046122476 0.046477199
0.32438725 0.047840152 0.045647662
0.32364601 0.048571996 0.044546247
0.32397604 0.049842924 0.04330647
0.32378775 0.049579419 0.044166207
0.32290447 0.048591644 0.045265555
0.32268703 0.04935956 0.046077251
0.32360539 0.049820408 0.045390051
0.32342005 0.049400821 0.045891166
0.3232972 0.050755918 0.045726061
0.323107 0.051404461 0.045485497
0.32467979 0.048619121 0.044186354
0.32463184 0.049237214 0.043576419
0.32582831 0.048755586 0.04451263
0.32583714 0.048192441 0.045617461
0.32459837 0.050675929 0.044065356
0.3246702 0.05125919 0.043058634
0.32523805 0.051511869 0.044845462
0.32473034 0.050830603 0.04531455
0.32453412 0.050910875 0.046159267
0.32578057 0.051758528 0.046598792
0.32531744 0.051778287 0.047114253
0.3280642 0.045253843 0.048392653
0.32614559 0.047698691 0.047089696
0.32692009 0.047186524 0.048048854
0.32727444 0.046578214 0.048491597
0.32883632 0.04806444 0.048231125
0.32981312 0.047038347 0.05053091
0.32612729 0.049389511 0.043786168
0.3271932 0.049506873 0.044012308
0.3274985 0.049011543 0.045483351
0.32758504 0.048466936 0.046683192
0.32742196 0.05012469 0.043199062
0.32861161 0.049704909 0.044674993
0.3286441 0.049147755 0.045809388
0.32977664 0.049281105 0.046120524
0.32994092 0.050572738 0.045222998
0.32999045 0.051273823 0.045277596
0.32894474 0.048652694 0.04727304
0.33018464 0.047686026 0.049898863
0.33167648 0.047903791 0.050654173
0.33041149 0.049990296 0.045811415
0.33023006 0.052017763 0.045567513
0.33189815 0.051582158 0.046550035
0.33392173 0.051542789 0.044706941
0.33242494 0.050950818 0.046665132
0.33275372 0.051526964 0.045434952
0.33233619 0.051556915 0.046005368
0.33395278 0.050986275 0.045840144
0.33327591 0.050957054 0.046088576
0.33329082 0.051524192 0.045012593
0.33167493 0.049027324 0.048471689
0.33155394 0.04956238 0.047230124
0.33061349 0.048347041 0.049337029
0.33287001 0.049457014 0.048317909
0.33275139 0.050399438 0.047618747
0.33353597 0.05045338 0.047504067
0.33483249 0.051625133 0.04474926
0.33566582 0.051689938 0.044696093
0.33449066 0.050983757 0.045419574
0.33537656 0.051060766 0.045431495
0.335527 0.05053252 0.046712756
0.33650577 0.05063121 0.046841264
0.33659339 0.051494852 0.04530865
0.33735669 0.050700679 0.0468117
0.33760098 0.051599793 0.045474112
0.33536512 0.05005905 0.048690915
0.33500779 0.048854455 0.05042994
0.33439404 0.049681053 0.049118757
0.33535105 0.049494475 0.049764514
0.33454734 0.050496556 0.047127843
0.33609813 0.050101638 0.048514485
0.3366726 0.049672693 0.050318003
0.33788437 0.049699843 0.049652576
0.33727956 0.049686506 0.049986482
0.33675414 0.050126523 0.048242807
0.33800161 0.0501616 0.047620058
0.33745098 0.05016084 0.04802227
0.32363838 0.037060052 0.058185339
0.32360387 0.038364232 0.057590544
0.3235085 0.036603421 0.060181141
0.32417572 0.03663224 0.059918761
0.32501501 0.037653208 0.061999798
0.32577866 0.036330864 0.061872363
0.32533538 0.037598878 0.061318159
0.33016384 0.039082706 0.058603644
0.3333115 0.038496196 0.057088971
0.33308131 0.038572267 0.057883024
0.33456445 0.039484009 0.058620811
0.33018345 0.03784509 0.059716463
0.33111644 0.037251949 0.059790611
0.33222264 0.037941992 0.058988452
0.33209878 0.038043737 0.059911013
0.33362031 0.038833499 0.059619427
0.33317095 0.038856536 0.060142636
0.33376884 0.039554805 0.059794188
0.33469248 0.039645731 0.059852839
0.33465731 0.040322483 0.059802532
0.33195239 0.046591759 0.051007867
0.33194602 0.047278211 0.050993323
0.33804077 0.047499135 0.054201961
0.33786118 0.047584355 0.055059671
0.33673048 0.048566043 0.052567959
0.33698058 0.049183488 0.051789045
0.33789185 0.049204618 0.051294088
0.33777508 0.048185907 0.054406881
0.33685738 0.048162907 0.054892063
0.32574409 0.052636087 0.042190552
0.3252272 0.055409998 0.042615294
0.32340306 0.052162319 0.045841575
0.32373506 0.052927718 0.04624176
0.32391918 0.053659588 0.046460629
0.32541156 0.052685335 0.042869687
0.32557702 0.052155137 0.044168711
0.32600725 0.052375942 0.045785189
0.32585913 0.053723559 0.04558897
0.32583499 0.053496271 0.046648145
0.32602751 0.054328591 0.044703007
0.32549441 0.052508265 0.047324538
0.32533604 0.053507835 0.047119379
0.32671481 0.053545073 0.043381572
0.3262473 0.053625509 0.044436991
0.32775664 0.052964315 0.043585896
0.32626241 0.053000003 0.045006037
0.32630175 0.053132355 0.046140552
0.32674998 0.054745276 0.04377671
0.32632947 0.054272979 0.043987751
0.32962197 0.054072782 0.045883179
0.32612211 0.05252558 0.047011614
0.33100921 0.05288294 0.046524048
0.33200336 0.052859291 0.045580387
0.33191648 0.052619375 0.046563089
0.33186668 0.053641006 0.046491742
0.33206439 0.054127231 0.044555187
0.33193827 0.054566622 0.045483828
0.33183545 0.054666653 0.046443403
0.33191246 0.055593878 0.045442224
0.33185589 0.055703729 0.046459079
0.3326014 0.052557766 0.044509966
0.3330434 0.053755581 0.043594658
0.3323839 0.05365726 0.044229705
0.33348963 0.052760467 0.043613076
0.33352131 0.052140757 0.04420352
0.33366531 0.053771839 0.043277204
0.33264595 0.052191436 0.045295119
0.33230346 0.052238315 0.0459584
0.33211201 0.053572565 0.045708537
0.33269611 0.054773048 0.043699086
0.33207834 0.054819375 0.044566274
0.33228695 0.055493481 0.04427433
0.3338396 0.054844528 0.043484807
0.33348405 0.055515289 0.043581784
0.3313297 0.053643793 0.046913743
0.33065724 0.054993123 0.047155261
0.33158275 0.054733045 0.047216833
0.33156505 0.055822454 0.047727644
0.33195764 0.056980848 0.045485377
0.33191711 0.056749552 0.046525121
0.33185112 0.057766974 0.046433806
0.33184713 0.058333099 0.045335889
0.33142734 0.05836165 0.045902848
0.33249915 0.056573838 0.044528067
0.33364734 0.056645781 0.044320107
0.33209902 0.056323856 0.045666933
0.33236009 0.057697363 0.045433998
0.33322269 0.057705849 0.044872165
0.33320999 0.058391169 0.04485023
0.33250254 0.05870039 0.045057416
0.33181173 0.056504056 0.047483563
0.33129346 0.05651091 0.047927856
0.3316685 0.057504028 0.047296703
0.33142221 0.057227105 0.048080206
0.33449709 0.052801907 0.043230057
0.33460951 0.052200735 0.043921173
0.33459073 0.053512096 0.043340564
0.3355242 0.052910164 0.043417692
0.33595771 0.052319929 0.043963432
0.33561087 0.053618401 0.043519616
0.33461183 0.054549985 0.04335779
0.33484256 0.055634692 0.043635845
0.33574778 0.054681852 0.043681324
0.33694971 0.053108841 0.044103146
0.33662736 0.053724051 0.04369545
0.33707452 0.052449107 0.044264436
0.33762932 0.053826511 0.043854117
0.33790177 0.053200364 0.044199824
0.3369928 0.054494545 0.044145107
0.33633721 0.05584617 0.044406414
0.33713132 0.055213466 0.044311881
0.33444083 0.056355968 0.044219971
0.33446577 0.057454638 0.044786274
0.33553183 0.056476697 0.044487476
0.3370657 0.06073086 0.050704837
0.33189887 0.058983266 0.057292819
0.33275235 0.059050649 0.057265639
0.33260655 0.058454961 0.058167815
0.3326456 0.059770852 0.057664573
0.33207023 0.059140712 0.058576107
0.33365005 0.058564484 0.058374405
0.33302039 0.057983115 0.059754729
0.33260614 0.058012098 0.060318828
0.33358139 0.057986528 0.05937016
0.3333683 0.057377055 0.060188055
0.33228743 0.057379261 0.061007023
0.33232898 0.058514029 0.058900476
0.33370346 0.058655255 0.062192917
0.33298242 0.057653457 0.062925696
0.33447647 0.05806376 0.05939579
0.33422995 0.057447135 0.060172558
0.33515054 0.057530344 0.060230017
0.33466935 0.056983113 0.061789155
0.33523989 0.056988895 0.061418056
0.3356325 0.058539987 0.059739292
0.33516467 0.059460551 0.059154034
0.33623576 0.057089239 0.061569095
0.3370527 0.059074119 0.060409069
0.33738959 0.058466941 0.060830116
0.33752608 0.059859723 0.060984015
0.33441585 0.058651298 0.06466949
0.33510274 0.05992505 0.063359857
0.33479774 0.058174878 0.066209316
0.33555764 0.059463531 0.064990997
0.33608395 0.059698537 0.066699982
0.33185762 0.065490559 0.066799164
0.33102202 0.066788703 0.066830635
0.33094221 0.067451805 0.066725731
0.33176675 0.06649112 0.066677034
0.33157623 0.06747064 0.066433549
0.33253527 0.065518916 0.066560507
0.3336125 0.06495297 0.066816807
0.33362201 0.065576576 0.066288888
0.33275735 0.06681025 0.06575191
0.33252844 0.066385418 0.066187501
0.33281475 0.067502171 0.065814137
0.33220059 0.067487448 0.066129923
0.33368689 0.066834196 0.065288484
0.33374113 0.066223666 0.065894485
0.33365643 0.067507491 0.06524384
0.33506441 0.060478672 0.062237024
0.33626449 0.060383812 0.060497999
0.33660567 0.061258599 0.061980605
0.33730578 0.061292633 0.061770201
0.33749482 0.062073663 0.06253022
0.33700782 0.062707379 0.062460065
0.33705568 0.063398123 0.062511802
0.33763474 0.06272538 0.062160492
0.33788383 0.06345953 0.06245935
0.33553684 0.060997531 0.066549182
0.33591753 0.061700881 0.066474438
0.3345691 0.063624106 0.066402495
0.33605629 0.062292576 0.065571427
0.33557901 0.062799141 0.066403352
0.33559683 0.063611291 0.065527737
0.33675098 0.061408922 0.063228011
0.33680397 0.061538994 0.064360857
0.33633196 0.060933903 0.06539017
0.33630443 0.060366951 0.066429496
0.33622858 0.061591186 0.065256417
0.33673915 0.062426955 0.063202858
0.33646765 0.062411923 0.064294934
0.3368839 0.063478455 0.063369632
0.33646342 0.063563734 0.064455688
0.33630437 0.062967084 0.065334499
0.3375909 0.064135045 0.062627256
0.33605123 0.064893007 0.064469814
0.33563712 0.06554231 0.064489067
0.33444253 0.064616278 0.066236764
0.33467966 0.065628082 0.065982699
0.3353563 0.064579062 0.06522271
0.33512318 0.065606713 0.06545949
0.33460081 0.067534491 0.064798951
0.33569723 0.066574536 0.064551651
0.33559969 0.067573093 0.064421415
0.33472189 0.066465929 0.065314293
0.33696955 0.064176902 0.063467503
0.33650479 0.064459436 0.064318858
0.33665302 0.065526962 0.063599169
0.33741599 0.064894177 0.063474
0.33782256 0.065602601 0.063431859
0.33654386 0.06658107 0.063988149
0.3370651 0.067595407 0.063549161
0.33648163 0.067587048 0.063901186
0.3375057 0.066612154 0.063566417
0.33762866 0.067599595 0.063172698
0.32741243 0.05911009 0.067853808
0.32743055 0.059795603 0.067867517
0.3299554 0.058066308 0.06882596
0.32881922 0.058617279 0.068503022
0.32819229 0.059842765 0.067727447
0.32860804 0.059252188 0.068239093
0.32973289 0.058698237 0.068548203
0.32965058 0.059701465 0.068436325
0.3254745 0.063698381 0.067576051
0.32681382 0.060461476 0.068174839
0.32671216 0.06161439 0.068391643
0.32761621 0.060458198 0.067553043
0.32759607 0.061475925 0.067516357
0.32629752 0.062511608 0.068586588
0.32612914 0.063156739 0.068374872
0.32741344 0.062634096 0.068874359
0.32743132 0.063999265 0.068879366
0.32878578 0.061215803 0.06736815
0.32947671 0.060684636 0.068213463
0.32809097 0.062662631 0.068633318
0.32826269 0.0634965 0.069892287
0.3300131 0.062958598 0.069899201
0.32959646 0.063665479 0.070446014
0.32688981 0.064564705 0.068216562
0.32823205 0.065979451 0.067702055
0.32852918 0.065419689 0.068600416
0.32909775 0.066047251 0.067689419
0.32959813 0.065473154 0.068303943
0.32874906 0.064844102 0.069404483
0.32973075 0.064937159 0.06953299
0.3291989 0.06426011 0.069957018
0.3289125 0.066688448 0.067456841
0.32884637 0.067694865 0.067364573
0.32984629 0.066430472 0.067531466
0.32996559 0.067475483 0.067664146
0.33199239 0.056794494 0.068127751
0.33162308 0.057513595 0.068733573
0.33073372 0.058798417 0.068700075
0.33082449 0.059498712 0.068802118
0.33170795 0.05957301 0.068812728
0.33088535 0.058151245 0.068892002
0.33185568 0.058585219 0.069003999
0.33261222 0.056811407 0.067818403
0.33340538 0.057667345 0.068775296
0.33274096 0.057640508 0.06902945
0.33281139 0.058675893 0.069103181
0.33369178 0.058410347 0.069115758
0.33306777 0.059751689 0.069402933
0.33406878 0.057693943 0.068520069
0.33589059 0.058536202 0.068606615
0.3358964 0.059556156 0.068602264
0.33470982 0.058515131 0.069292665
0.33460322 0.059437022 0.069506407
0.33433145 0.059909508 0.069878101
0.33539182 0.058545858 0.06906116
0.33544978 0.059577256 0.069120169
0.33606988 0.059135348 0.067754626
0.33624029 0.059852079 0.067955136
0.3308686 0.060188591 0.068847656
0.33117384 0.06093505 0.069209695
0.33194596 0.061782092 0.070138216
0.33043569 0.062252715 0.069359303
0.33161205 0.063864321 0.070768595
0.3324964 0.060424984 0.069761992
0.33300841 0.061894566 0.070367575
0.33366275 0.060560927 0.07011795
0.33404154 0.061883152 0.069502115
0.33346415 0.061462346 0.070219599
0.33386427 0.063647866 0.067138791
0.33364385 0.063717306 0.067933202
0.3325271 0.06258671 0.070835114
0.3325032 0.063541338 0.070264429
0.33400565 0.062554255 0.069450617
0.33332142 0.062582381 0.070209801
0.33354545 0.063531846 0.069409728
0.33090568 0.063829392 0.070971847
0.33180445 0.063226804 0.071009874
0.33076388 0.064925462 0.068664432
0.33075118 0.065486774 0.067579627
0.33019137 0.06548351 0.06796205
0.33182549 0.064919814 0.067830443
0.3312394 0.064910859 0.068180442
0.33129883 0.065487489 0.06718266
0.33042508 0.064969167 0.069314122
0.33055943 0.064434409 0.070544362
0.33157527 0.06441915 0.06965661
0.33123106 0.064461738 0.07029891
0.33059582 0.06647379 0.067379117
0.33049315 0.067471877 0.067242622
0.33130229 0.066168085 0.067178965
0.33271196 0.064934872 0.067314863
0.33369917 0.064350225 0.06746155
0.33309311 0.064395055 0.068317413
0.3324689 0.064435914 0.069150627
0.3358081 0.060436621 0.067420006
0.3353546 0.060515516 0.068461657
0.33574563 0.061781585 0.067328691
0.33540761 0.061639115 0.068336569
0.33448666 0.060563065 0.06952852
0.33458176 0.061469316 0.069457017
0.33531594 0.061245292 0.068938136
0.33453801 0.063055031 0.067435801
0.33457738 0.062501743 0.068554103
0.33411342 0.063139245 0.068512559
0.33540961 0.062446788 0.067443013
0.33867574 0.052001268 0.045176864
0.338606 0.051423222 0.046185017
0.33955199 0.051514447 0.046275735
0.34045309 0.051595509 0.046311498
0.33874285 0.049708672 0.049091339
0.34001899 0.049813956 0.049050331
0.33936447 0.049229294 0.050412655
0.33846259 0.05082874 0.047100425
0.33944756 0.050929204 0.047239661
0.33947116 0.050373882 0.048362374
0.34037524 0.049336821 0.050585032
0.34191108 0.049998671 0.049236178
0.34143966 0.049736358 0.050279975
0.34061348 0.051071376 0.047605872
0.34053022 0.05049184 0.048594952
0.34166586 0.051467769 0.047284663
0.34166366 0.050627112 0.048921704
0.34274718 0.049723096 0.049195945
0.34240466 0.05067201 0.048759699
0.34301871 0.05193302 0.047340393
0.34263271 0.051284298 0.047951698
0.34321344 0.050732672 0.048682928
0.34391373 0.052013084 0.047371984
0.34370828 0.051406115 0.048208714
0.34389889 0.05020602 0.049545288
0.34500152 0.04965055 0.049842834
0.34420812 0.049592897 0.049937367
0.34556848 0.048971087 0.049471021
0.34478718 0.051528856 0.048471093
0.34594768 0.051670521 0.048837066
0.34495369 0.050666206 0.049774826
0.34571093 0.051057398 0.049633265
0.34630108 0.049825937 0.050382972
0.34646368 0.05110538 0.049489141
0.3463406 0.050519004 0.05042696
0.34709895 0.050568566 0.050290704
0.34752169 0.051565915 0.04972589
0.34936124 0.051955312 0.048770428
0.34862709 0.051974319 0.049479783
0.34904277 0.051450044 0.05055058
0.34978628 0.051496252 0.050397635
0.35283756 0.052004188 0.046613455
0.35352474 0.052037358 0.046390653
0.35196245 0.052053481 0.047690034
0.35059622 0.051701609 0.049602032
0.35179615 0.05102782 0.050756574
0.35172713 0.051568046 0.049576879
0.35247079 0.051703736 0.047243536
0.35251325 0.051498204 0.048390031
0.35378039 0.051476836 0.047264755
0.35266215 0.051039748 0.050216258
0.35220605 0.051553056 0.049091935
0.35342425 0.051027507 0.04954505
0.33969265 0.041984603 0.058459401
0.34189558 0.042804897 0.057945609
0.33891922 0.047576711 0.054208875
0.34039623 0.04779388 0.05495882
0.34179407 0.047992855 0.055612445
0.33885854 0.049238622 0.050868511
0.33927733 0.048776478 0.052477598
0.33860314 0.048809946 0.05326426
0.33950922 0.048335269 0.054393291
0.34060124 0.048893705 0.052497506
0.34190273 0.049005955 0.052491426
0.34099752 0.04836446 0.053537011
0.34049559 0.048374489 0.053995252
0.34195125 0.048459589 0.053640127
0.34257019 0.047919855 0.054415464
0.34542894 0.048079312 0.053647637
0.34254885 0.04804197 0.055469513
0.34271044 0.047523588 0.056755543
0.34371179 0.047503382 0.055840373
0.34479243 0.047629207 0.056104302
0.34565693 0.047704518 0.056100249
0.34305555 0.049020499 0.051759839
0.34289327 0.048767336 0.052644193
0.34279442 0.049644411 0.051428676
0.34392667 0.049096346 0.051762104
0.34365749 0.048476368 0.052515984
0.34327924 0.049630418 0.05094862
0.34241086 0.048439741 0.053129554
0.34438539 0.048519105 0.052340031
0.34588712 0.049172327 0.050956249
0.34519124 0.048150972 0.054433465
0.3444559 0.048169754 0.055139482
0.34706825 0.047653243 0.054616928
0.34904081 0.047733903 0.053834915
0.34815884 0.047718033 0.054355919
0.3465693 0.047727413 0.055616558
0.34778488 0.048931867 0.053335786
0.34795862 0.048417181 0.054641366
0.34864384 0.0484505 0.054415822
0.34856147 0.050781518 0.051037908
0.34948355 0.050869316 0.051109076
0.34737891 0.048408598 0.054999232
0.35026729 0.050925091 0.051007271
0.3511737 0.051009387 0.051060319
0.35194236 0.050632671 0.053117394
0.35397261 0.049491376 0.05351162
0.35357463 0.049525112 0.054095149
0.35266671 0.050611824 0.052400529
0.35355335 0.050628826 0.05188787
0.35389197 0.050153434 0.053405046
0.35336804 0.050220989 0.054372311
0.338292 0.052601323 0.044692397
0.33868551 0.053253785 0.044087291
0.3392399 0.052692354 0.044785261
0.3391878 0.05405502 0.044708848
0.33985412 0.052145272 0.045557976
0.3382017 0.054643363 0.044562578
0.34057552 0.052528545 0.045366466
0.34036148 0.053509921 0.045090556
0.34094995 0.056755885 0.049065828
0.34014916 0.057383955 0.049147725
0.34196371 0.058913618 0.049227238
0.34162021 0.058677115 0.050428957
0.34175879 0.059612818 0.049508512
0.34121644 0.059673965 0.050459146
0.34207731 0.052403286 0.04615736
0.3424468 0.053173617 0.046614051
0.34604836 0.055550858 0.046754718
0.34295303 0.05559133 0.049404979
0.34358859 0.054927245 0.0491184
0.3438648 0.055673927 0.049458027
0.34433675 0.052795157 0.047896266
0.34596288 0.053726584 0.048840046
0.34599894 0.053050756 0.04889071
0.34530073 0.053699926 0.049097896
0.34494203 0.054986686 0.048637986
0.3444497 0.055621207 0.048559666
0.34586108 0.054605559 0.047616482
0.34533402 0.054536995 0.048407476
0.34533939 0.055575646 0.047498584
0.34447539 0.054662406 0.049143553
0.34562477 0.056637112 0.046577375
0.34539548 0.057518706 0.046464145
0.34500414 0.058861107 0.046507359
0.3455669 0.058449153 0.046490908
0.34527248 0.059604928 0.04683876
0.3438803 0.056580879 0.04838264
0.34402966 0.057518527 0.047473907
0.34332094 0.057543211 0.04821825
0.34211504 0.056209996 0.049438834
0.34273523 0.05703336 0.050207019
0.34279042 0.057607651 0.049184918
0.34240639 0.057704739 0.050333321
0.34344706 0.056761041 0.049288671
0.34342343 0.056381404 0.04998672
0.34266797 0.058888085 0.048477709
0.34259722 0.05955667 0.048383653
0.34376049 0.058639783 0.047490437
0.34332439 0.058228336 0.048217058
0.34358236 0.059532933 0.047441602
0.34255186 0.058299474 0.049424231
0.3445127 0.056538943 0.0475429
0.34456116 0.057515278 0.04705143
0.34527844 0.056184754 0.046872497
0.34448361 0.058524601 0.046946168
0.34445888 0.059545591 0.046907187
0.33889145 0.061575279 0.050799131
0.33974946 0.060959399 0.050788641
0.33981276 0.061537728 0.049777985
0.33924443 0.061532974 0.050154805
0.33981246 0.063471526 0.048675537
0.33897972 0.062159538 0.049819708
0.3388218 0.062586121 0.050703466
0.33972412 0.062485196 0.049116701
0.33910489 0.062870994 0.049969316
0.33934546 0.063488796 0.0491786
0.33928788 0.063594639 0.050190687
0.34081352 0.061517522 0.048855305
0.34156668 0.06087859 0.048714757
0.34175956 0.061545156 0.048406839
0.34073505 0.060667913 0.049488347
0.34023848 0.060604848 0.050316572
0.34029299 0.061523229 0.049291492
0.34146139 0.060231321 0.04913187
0.34061223 0.062499985 0.048595607
0.34043211 0.063487276 0.048362374
0.34133506 0.062538356 0.048411489
0.34140462 0.06357953 0.04848969
0.33987105 0.06422741 0.049284697
0.34072083 0.06423384 0.048716545
0.34163249 0.064312696 0.048768282
0.34034836 0.06495522 0.049331069
0.34047276 0.065099478 0.050569534
0.34078762 0.065791622 0.050413847
0.3411321 0.065006256 0.049223423
0.34145582 0.065759212 0.049621105
0.34138101 0.066543147 0.050605416
0.34151888 0.067255288 0.050771236
0.34245056 0.060550641 0.048192084
0.34267032 0.061565116 0.047914982
0.34346819 0.060440127 0.047472596
0.34343755 0.06161359 0.047787428
0.34248745 0.062516756 0.048403304
0.34364676 0.062744632 0.048584282
0.34263784 0.063728482 0.048943639
0.34380561 0.063863397 0.04931736
0.34426388 0.060589053 0.047198832
0.34429419 0.061681673 0.047772646
0.34539554 0.060718358 0.04752928
0.34590596 0.061915725 0.048704863
0.34495354 0.062509567 0.048592806
0.34473422 0.063605122 0.049396098
0.34604752 0.06262958 0.048877001
0.34571731 0.063700385 0.049541175
0.34284198 0.064456016 0.049193025
0.34236676 0.065154433 0.049678683
0.34262586 0.065893069 0.049996257
0.34338152 0.065255433 0.049861073
0.34388655 0.066046581 0.050486207
0.34247947 0.066602893 0.050349712
0.34234315 0.067655735 0.050712705
0.34389132 0.066729844 0.050486565
0.34322008 0.067726202 0.050723374
0.34438932 0.064672619 0.050041556
0.34449083 0.065376952 0.050162673
0.34534675 0.064761788 0.05015409
0.34558624 0.06549558 0.050448298
0.34487128 0.066481903 0.050629973
0.34409893 0.067456245 0.050740004
0.345613 0.066183224 0.050476432
0.34670001 0.054890424 0.046488523
0.34664959 0.055563435 0.046419978
0.34762308 0.054706771 0.046197135
0.34792781 0.055605829 0.045846701
0.34725881 0.055577844 0.046095729
0.34822196 0.054304168 0.046226978
0.34680653 0.053048447 0.048271537
0.34683853 0.053677544 0.047762275
0.34640235 0.053702474 0.048303366
0.34748876 0.053017393 0.047495127
0.34779602 0.052466512 0.048430681
0.34766668 0.053679921 0.047168791
0.34608442 0.052386239 0.049003243
0.34723884 0.05252625 0.049363136
0.34659743 0.054493546 0.047089577
0.34809309 0.053030998 0.047165155
0.34864914 0.052474782 0.047869682
0.34882814 0.053758591 0.046995163
0.34989256 0.0526357 0.048345208
0.34946018 0.053219721 0.047795773
0.34988761 0.055926651 0.04722476
0.34698963 0.056201383 0.045751929
0.34644625 0.056544118 0.046156764
0.34630901 0.05753991 0.045976639
0.34783566 0.056269243 0.045725703
0.34761572 0.056965373 0.045989513
0.34729463 0.0576386 0.046125531
0.34669566 0.058310702 0.046457529
0.34778047 0.058431268 0.04673171
0.34648269 0.059752405 0.047268987
0.34738237 0.059147686 0.047315359
0.34796643 0.059960783 0.048044324
0.34887403 0.057870716 0.047023296
0.34987032 0.056605965 0.047198176
0.34865385 0.059309602 0.047825456
0.34935415 0.058661461 0.0476228
0.34940085 0.059756696 0.048218608
0.35188967 0.052594185 0.046502352
0.35304242 0.052609012 0.045775652
0.35236877 0.052579135 0.046015859
0.35290223 0.05394344 0.045589328
0.35227594 0.053510774 0.046256423
0.35395974 0.052695304 0.045844555
0.35309792 0.053305164 0.045841455
0.35286117 0.054741904 0.046625137
0.35339844 0.05474034 0.046212912
0.35340774 0.055425316 0.046220303
0.35191548 0.052725717 0.047626019
0.35187715 0.052159593 0.048672438
0.35155854 0.052552879 0.049357295
0.3513242 0.053522855 0.049054623
0.35082126 0.054773062 0.048411131
0.35015613 0.055304453 0.047567964
0.35127658 0.05419451 0.048989773
0.35223073 0.05403918 0.046923995
0.35225666 0.053487197 0.048052073
0.35234326 0.052949816 0.04925561
0.3524369 0.053653657 0.049368978
0.35286564 0.054867327 0.047721624
0.35340005 0.055547625 0.047302127
0.35372871 0.055746496 0.04880774
0.35301983 0.054344863 0.049010873
0.35284376 0.05442901 0.049877286
0.35369974 0.055182263 0.049864531
0.35347843 0.055668619 0.050307434
0.35033399 0.057734951 0.047775209
0.35092378 0.058890969 0.048511147
0.35145438 0.059691519 0.049175024
0.35386461 0.056273781 0.047339797
0.34656921 0.061600037 0.048452258
0.34725457 0.060606748 0.048232913
0.34757966 0.061361298 0.04863596
0.34780991 0.06209448 0.048919797
0.34650421 0.063411906 0.049444079
0.34723526 0.062770247 0.049280047
0.3474412 0.063497454 0.049533129
0.34825897 0.060708418 0.048406959
0.34914088 0.060783103 0.048428059
0.34881866 0.061514482 0.049105287
0.34968156 0.061584786 0.04910326
0.34867966 0.062566772 0.049466312
0.34856516 0.06362392 0.049857855
0.34931135 0.062986493 0.049714327
0.34962052 0.06373556 0.050097704
0.34666562 0.064623401 0.049999356
0.34648073 0.06557104 0.050483704
0.34800693 0.064643204 0.050234973
0.34737539 0.065646559 0.050519943
0.34646249 0.066248715 0.050455451
0.34749335 0.066353321 0.050662518
0.34886616 0.064371005 0.050230622
0.34828806 0.065726131 0.050579786
0.34979671 0.064455122 0.050314188
0.34928146 0.065482773 0.050744474
0.35016298 0.060206875 0.04863131
0.35048664 0.060960665 0.04903388
0.35067004 0.061682895 0.049259901
0.35181624 0.060453638 0.049626231
0.35009873 0.062699109 0.04962039
0.3506704 0.063846141 0.050332069
0.35123724 0.062489301 0.049969077
0.35182363 0.06329903 0.050702572
0.35272712 0.06133689 0.050769329
0.35022986 0.065230101 0.050853372
0.35108536 0.064617395 0.05084908
0.34077501 0.059013233 0.050998926
0.34045389 0.059686437 0.051135123
0.33957505 0.059951454 0.060291052
0.3386142 0.059638947 0.06125474
0.33933955 0.059678987 0.061076283
0.33879566 0.060989797 0.051768541
0.33860654 0.061632365 0.051527739
0.33957744 0.06054559 0.051300567
0.3389191 0.061819702 0.052996278
0.33882284 0.062363267 0.05178988
0.33967543 0.063514076 0.052298129
0.33904356 0.062529981 0.053144217
0.34001672 0.063423872 0.054344296
0.34009784 0.064005852 0.053359509
0.33965892 0.062099904 0.054991961
0.34005761 0.061861575 0.058719873
0.33984208 0.062822029 0.055212617
0.33961666 0.062209472 0.05601728
0.34074551 0.061655074 0.056344151
0.34014559 0.061761975 0.05775404
0.34034002 0.061182767 0.058538258
0.34033 0.063609779 0.055810571
0.34034151 0.063048825 0.056907773
0.34030688 0.062478364 0.05794692
0.34043711 0.063750878 0.057019711
0.34034729 0.063434549 0.05834651
0.33990175 0.064410865 0.050947785
0.3404355 0.064643562 0.052692533
0.34058785 0.065241605 0.051794648
0.34063271 0.065651134 0.052388012
0.34048301 0.06477128 0.053831339
0.34064993 0.065771833 0.053489506
0.34101158 0.066580892 0.051228046
0.34058121 0.066663831 0.052314818
0.34090149 0.067240119 0.051084995
0.34085757 0.067346945 0.052111983
0.34165999 0.068025723 0.051482141
0.34122264 0.068106592 0.052559853
0.34078953 0.066541933 0.054196298
0.34085381 0.067462176 0.053187609
0.34088385 0.067584485 0.054304123
0.34060952 0.064575046 0.055069983
0.34061012 0.064692602 0.056148112
0.34082353 0.065643489 0.055325866
0.34074873 0.065744251 0.056310177
0.34053445 0.06445308 0.057133913
0.34020859 0.064558879 0.058343291
0.34058246 0.065484896 0.057183683
0.34048566 0.065580942 0.058138907
0.34073895 0.06664747 0.055211723
0.34075135 0.066766419 0.056304097
0.34067714 0.067656383 0.055125713
0.34063214 0.067762524 0.056146979
0.34078264 0.066548944 0.057421803
0.34058887 0.066623792 0.058256865
0.34061536 0.067534208 0.0572052
0.34035936 0.067747377 0.058320362
0.34605473 0.066959649 0.051023602
0.34554645 0.067590654 0.050924122
0.33979595 0.060561359 0.059483886
0.33981621 0.060685217 0.060581684
0.33993578 0.061272979 0.059649825
0.3399258 0.06172993 0.060706735
0.33855501 0.060706757 0.061707139
0.33816916 0.061362386 0.061760902
0.33837008 0.062086612 0.062001109
0.33961159 0.060759604 0.061401248
0.33939984 0.061453052 0.06166923
0.34002477 0.06265378 0.059746385
0.33981389 0.062726155 0.060558796
0.33999789 0.064008951 0.059700012
0.33989793 0.063764781 0.060652375
0.33834445 0.062761337 0.061962724
0.33864886 0.063507363 0.062330008
0.33952865 0.062368292 0.061640382
0.33930397 0.062851578 0.062072873
0.33972228 0.063504368 0.061510563
0.33933681 0.063538551 0.062106371
0.34007609 0.06198436 0.05981636
0.34029019 0.062593192 0.059000611
0.34018743 0.063650928 0.059400678
0.34004807 0.064817205 0.060827494
0.34002101 0.065374568 0.059715271
0.33978069 0.065439701 0.060491085
0.33890435 0.064582109 0.062633812
0.33898461 0.065618634 0.062722206
0.33969414 0.064518079 0.0614658
0.33937687 0.064566828 0.062145531
0.33961612 0.065521002 0.061359525
0.33931059 0.065572038 0.0620538
0.33895826 0.068100065 0.060522318
0.33982229 0.066468507 0.060532391
0.33984858 0.068058148 0.059476256
0.33962747 0.067786708 0.060278833
0.33891225 0.066846237 0.061549783
0.33853683 0.066694111 0.06251657
0.33883834 0.067510173 0.061452031
0.33830392 0.06756983 0.062399268
0.33943135 0.066501141 0.061121881
0.33921283 0.066230699 0.061926603
0.33930111 0.067492962 0.060951352
0.34021252 0.064735532 0.059958339
0.34032366 0.065662883 0.059012651
0.34026212 0.06610629 0.06000638
0.34021541 0.066718243 0.059405744
0.3402501 0.067405634 0.059441984
0.33832669 0.064914614 0.062989473
0.33846825 0.065624446 0.063156366
0.33833915 0.066276252 0.062990785
0.35368687 0.056665361 0.050926328
0.35397157 0.057750873 0.051278412
0.34689593 0.067023188 0.050992727
0.34775883 0.067091435 0.050989985
0.34707296 0.067742169 0.051209092
0.34874177 0.06650494 0.051143765
0.3484093 0.067512937 0.051260889
0.3496784 0.066589504 0.05123508
0.34956831 0.067644805 0.051631272
0.35219616 0.064060986 0.051166654
0.35346609 0.062180758 0.051695704
0.35056043 0.065982223 0.051263809
0.35146487 0.065720201 0.051319003
0.35070562 0.066693738 0.051441312
0.35012335 0.068045437 0.051783562
0.35116976 0.067473531 0.052019596
0.35365093 0.065058291 0.052993536
0.35291135 0.067052349 0.053131104
0.35453728 0.051804744 0.046582878
0.35555744 0.051574171 0.046785951
0.35629499 0.05161944 0.046628952
0.35711259 0.051683411 0.046574235
0.35538679 0.051041953 0.048211634
0.3543601 0.051055767 0.049093187
0.35652485 0.05105412 0.047471225
0.35750699 0.0510934 0.047079682
0.35803765 0.050662965 0.048849583
0.35639796 0.050723329 0.050586045
0.35765594 0.05070053 0.049456
0.35714698 0.050708324 0.04990077
0.35858059 0.050663128 0.048447728
0.35847181 0.051533043 0.04721117
0.35543877 0.049708426 0.054273605
0.35506117 0.050727636 0.051616192
0.35457397 0.05074048 0.052088261
0.35567218 0.050743744 0.051300526
0.35453379 0.050176814 0.053128362
0.35593283 0.050377578 0.05380702
0.35759479 0.050386518 0.052648425
0.35651404 0.050386935 0.053454995
0.35707021 0.050390407 0.053071737
0.35687286 0.04991816 0.054997444
0.35859331 0.050004877 0.054458737
0.35864419 0.05037874 0.051802278
0.35810548 0.050379336 0.052207589
0.36499333 0.051787898 0.053337932
0.36564761 0.051814929 0.053083777
0.37004077 0.046669886 0.052191734
0.36960393 0.047371984 0.052719355
0.36893159 0.048017293 0.052945018
0.36958641 0.047497392 0.053786635
0.36935383 0.047570884 0.054577708
0.36732528 0.04918173 0.052517891
0.36638677 0.049419519 0.053314965
0.3676753 0.048780546 0.054601669
0.36693144 0.051736355 0.05145514
0.36638054 0.051797092 0.052385986
0.36766753 0.05144389 0.051307917
0.36769235 0.051238075 0.052431822
0.36704206 0.051338956 0.053778648
0.36658555 0.051358357 0.054283738
0.36755073 0.050654575 0.053343415
0.36748797 0.050767258 0.054351449
0.36737859 0.051291272 0.053120017
0.36858952 0.048612878 0.052503586
0.36849517 0.048719153 0.053472519
0.36816227 0.048768282 0.054135799
0.36909777 0.048186332 0.054246664
0.36714578 0.050813675 0.055001974
0.35504484 0.052137703 0.046131372
0.35445058 0.053677414 0.046096604
0.35547045 0.052514821 0.04612267
0.35430056 0.05482237 0.046263337
0.35455465 0.055562973 0.046580911
0.35537601 0.054603137 0.046536505
0.3561756 0.052956462 0.046468973
0.35616875 0.053637162 0.046455979
0.35711059 0.05270616 0.046565533
0.35645837 0.054385975 0.046819448
0.35735106 0.054466456 0.046860695
0.35581863 0.055727571 0.047091365
0.35746092 0.053810105 0.047004342
0.35669053 0.055461898 0.047107935
0.35767394 0.055562817 0.047264814
0.35461134 0.056258157 0.046648264
0.35458082 0.057056665 0.047696471
0.3546173 0.057467252 0.048285604
0.35562468 0.056767859 0.047384739
0.35537469 0.057795003 0.047606826
0.35428542 0.056554735 0.049506664
0.35447228 0.056720495 0.050830603
0.35472074 0.057613544 0.049505711
0.35489434 0.058054507 0.050266862
0.35542905 0.058549866 0.048216522
0.35517621 0.058676392 0.049530625
0.35566762 0.059685752 0.049056828
0.35548741 0.059426889 0.049919605
0.35610336 0.057155609 0.047443867
0.35656422 0.057941273 0.048024178
0.35755283 0.056618892 0.047650635
0.35721195 0.057284087 0.047759295
0.35756892 0.058045864 0.048208117
0.35652763 0.058613941 0.047973394
0.35647944 0.059592176 0.048633456
0.35789388 0.058799788 0.048616529
0.35796732 0.059496567 0.048705578
0.35843575 0.052547023 0.047159076
0.3583999 0.053560905 0.047107458
0.35858727 0.054626152 0.047339678
0.35867995 0.055328548 0.047453523
0.35908514 0.056102246 0.047964811
0.35843325 0.057438344 0.048219323
0.35918707 0.056806043 0.048090339
0.3597315 0.057610273 0.048778772
0.35867923 0.05851455 0.048525631
0.35952348 0.059724808 0.049592257
0.36044735 0.058452457 0.049685121
0.35598856 0.060219347 0.05054903
0.35640743 0.060811155 0.04944253
0.35609919 0.060923919 0.050684452
0.35672396 0.061621964 0.050383091
0.35738489 0.060507692 0.049049914
0.3576149 0.061639279 0.04987973
0.3567521 0.062307775 0.050414205
0.35761097 0.062717572 0.050412238
0.35864341 0.060667992 0.049557567
0.358913 0.061747313 0.049893498
0.35958868 0.060418814 0.049670935
0.35837173 0.062426567 0.050290942
0.35844827 0.063122541 0.050383687
0.36551774 0.052824467 0.050185859
0.36571249 0.053895991 0.0495193
0.36535829 0.05352886 0.050524116
0.3650642 0.054138929 0.050144792
0.36502564 0.055487022 0.050088286
0.36565983 0.054767706 0.049265206
0.36513931 0.054834887 0.050237179
0.3653453 0.055436045 0.049405336
0.36552978 0.056496218 0.049635947
0.36554036 0.056622863 0.050740361
0.36624724 0.052805617 0.049481273
0.36646664 0.052241825 0.050311565
0.36610538 0.05345118 0.049296141
0.3661449 0.055496037 0.049336314
0.36672336 0.056307733 0.050073266
0.36616725 0.057659566 0.050445795
0.36617506 0.058339 0.050452232
0.35496986 0.057513788 0.051454067
0.35493284 0.058185667 0.051402688
0.35455525 0.05890286 0.052007556
0.35474104 0.059624419 0.052237034
0.35554492 0.058881536 0.051084518
0.35538411 0.058967307 0.05196774
0.35568482 0.059592903 0.051256537
0.35594678 0.059773207 0.052673459
0.35593969 0.060329705 0.051574111
0.35554618 0.060423456 0.052705705
0.35580438 0.061220497 0.053568959
0.35495096 0.063187763 0.053562284
0.35571051 0.064033285 0.054514766
0.35641199 0.061114505 0.052166343
0.35659593 0.061714023 0.051308274
0.35640615 0.061792299 0.052154422
0.35653648 0.061602198 0.053406298
0.35624141 0.061996207 0.054115415
0.35680404 0.06277892 0.051564574
0.35679805 0.062558055 0.052644968
0.35675138 0.063226372 0.052581429
0.35712546 0.063069686 0.050882459
0.35740733 0.06381084 0.051234961
0.35707873 0.063857794 0.051905274
0.35672724 0.062662289 0.053640246
0.35623354 0.062672824 0.054100752
0.35695237 0.064008713 0.053372979
0.35686797 0.063431263 0.054354727
0.35703361 0.064526528 0.051843762
0.35740298 0.064488649 0.051224947
0.35784012 0.065263003 0.051773906
0.35757342 0.065735795 0.052157324
0.35701799 0.065438345 0.053988457
0.35712814 0.064666018 0.053048372
0.35720623 0.064801827 0.054230928
0.35723242 0.065705881 0.053173363
0.35751206 0.066665828 0.052435398
0.35775524 0.067396402 0.052738428
0.35726273 0.066729277 0.053204656
0.35730764 0.066517808 0.054347277
0.35773492 0.067509174 0.053796768
0.35751933 0.067579582 0.054607511
0.35543931 0.06612587 0.055240512
0.35677946 0.064640492 0.055137515
0.35681188 0.065629557 0.055892944
0.35719788 0.065595761 0.055298209
0.35670853 0.066774614 0.05611499
0.35663962 0.067681685 0.056201816
0.35720354 0.066612706 0.055298209
0.35719699 0.067626834 0.055282831
0.35808098 0.063839883 0.051001191
0.35985291 0.062635183 0.051082611
0.35910082 0.063945308 0.051207066
0.36103362 0.061421216 0.051502824
0.35808629 0.064519748 0.051003695
0.35861254 0.065313518 0.051666141
0.35818863 0.066695184 0.052206278
0.35956126 0.066198602 0.052864075
0.35889202 0.067525357 0.05309248
0.36454237 0.052360058 0.052759409
0.36469612 0.053689033 0.05240339
0.36558816 0.05262816 0.051368594
0.36530933 0.052597191 0.052284282
0.36512977 0.053601474 0.051322699
0.36473525 0.053083137 0.053001285
0.36483991 0.054212302 0.050949097
0.36483443 0.054399058 0.052575946
0.36514407 0.054961056 0.051333547
0.36506605 0.055067942 0.052323103
0.36521387 0.055655181 0.0514189
0.36546239 0.055899277 0.053368688
0.36546487 0.056390792 0.05173552
0.36587214 0.05771555 0.051158786
0.36596283 0.057521172 0.052365661
0.36441004 0.057197586 0.053651094
0.36568683 0.056565985 0.053107262
0.36589998 0.05729185 0.053375363
0.36564845 0.057357758 0.054141641
0.36557391 0.058417089 0.054584026
0.36576444 0.059535742 0.055363417
0.3674649 0.057155997 0.051018953
0.36620331 0.058037966 0.053758383
0.36630452 0.058491662 0.051707625
0.36624336 0.058600694 0.052718163
0.36650902 0.059153892 0.051420629
0.36673063 0.059942275 0.052244902
0.36761272 0.06002003 0.052283645
0.36613876 0.058699682 0.053672314
0.36615658 0.058826476 0.054781318
0.36659217 0.059694819 0.053157866
0.36656743 0.059473455 0.054215193
0.36821294 0.058004543 0.051972985
0.36639112 0.059555709 0.055076241
0.36592144 0.061719015 0.056635141
0.36441427 0.062852949 0.055794358
0.36569774 0.063813671 0.057421327
0.36326987 0.067682445 0.057559252
0.36582196 0.064515665 0.057574987
0.36567879 0.065422706 0.057748199
0.3655141 0.065914854 0.058256984
0.3660323 0.067814842 0.056739926
0.36464834 0.066517025 0.058234811
0.36505258 0.067279398 0.058743477
0.36592078 0.066560015 0.057688236
0.36572963 0.066636056 0.058526516
0.36587104 0.067560032 0.057618916
0.36568934 0.067637764 0.058468997
0.36706299 0.06069389 0.05266571
0.36681783 0.060543947 0.054528773
0.3670184 0.061481401 0.053692698
0.36690956 0.06157811 0.054640055
0.36709529 0.060822874 0.053794503
0.36750317 0.061469227 0.053224564
0.36699092 0.062609464 0.054738164
0.3673231 0.062563218 0.054076016
0.36739516 0.063652389 0.054705441
0.3680805 0.062274605 0.053958654
0.36674148 0.060648434 0.055516899
0.36639154 0.060690917 0.056155741
0.36685848 0.061687678 0.055660248
0.36662555 0.061756283 0.056447625
0.36678404 0.062683597 0.055559516
0.36654487 0.062750511 0.056339085
0.36674225 0.063686833 0.055500507
0.36646736 0.063745469 0.056234479
0.36611271 0.062436834 0.056874514
0.36622781 0.063474596 0.057014763
0.36969382 0.063310832 0.056016207
0.36689028 0.064731933 0.055683255
0.3665258 0.064770438 0.056302905
0.36693388 0.065753475 0.055732965
0.36660767 0.06580022 0.056401134
0.36727551 0.064698003 0.055089831
0.36797297 0.065863952 0.05597353
0.36624593 0.064490378 0.057031751
0.366202 0.065492243 0.056969821
0.36684477 0.066408411 0.055615544
0.36622068 0.066448681 0.056446254
0.36641988 0.067444861 0.056152225
0.36725801 0.067173347 0.056138277
0.36617136 0.067171097 0.056920767
0.36880869 0.064581573 0.055963039
0.36546892 0.068043709 0.059267163
0.30951172 0.068262398 0.044962168
0.30997407 0.068471014 0.046602011
0.3099218 0.068687603 0.048695207
0.30903572 0.068733305 0.049779296
0.3088558 0.068464369 0.050642073
0.3090151 0.069533259 0.050820827
0.30934656 0.068683416 0.049077749
0.30981165 0.069469571 0.049630284
0.30937004 0.069492638 0.050173521
0.30889636 0.070199907 0.050669193
0.30992398 0.070528723 0.04975301
0.30936381 0.070527598 0.050152957
0.30993283 0.071566612 0.049750805
0.30922469 0.071591586 0.05050981
0.30958375 0.072643712 0.050392151
0.30978203 0.073718742 0.05061841
0.30961549 0.074375644 0.05040884
0.31030375 0.068652198 0.048079133
0.31031227 0.069232166 0.047002673
0.31073278 0.069431245 0.048589349
0.31049222 0.069495291 0.049375653
0.31057656 0.070203274 0.049468875
0.31125766 0.070229053 0.049215198
0.31108266 0.070996493 0.050071478
0.31118912 0.071708247 0.050191641
0.31253177 0.069572181 0.048610568
0.31226933 0.070322126 0.049361825
0.31244344 0.071103849 0.050102174
0.31236362 0.071833551 0.050535083
0.3101961 0.072655335 0.050055623
0.31041771 0.073734939 0.050310135
0.31111676 0.072728813 0.050091624
0.31119668 0.073779792 0.050175309
0.31045341 0.074432001 0.050344706
0.3107717 0.075184971 0.050720334
0.31154656 0.074539229 0.050589442
0.31160933 0.075241148 0.050656676
0.31209511 0.072469145 0.050202131
0.31223699 0.073532149 0.050361097
0.30785066 0.068831086 0.051576853
0.30843517 0.068491742 0.051210344
0.30890554 0.069623813 0.051762938
0.30884558 0.069724351 0.052763939
0.30894515 0.070667423 0.05179745
0.30888683 0.071112782 0.052795768
0.30912524 0.070936948 0.050935984
0.30920714 0.071755618 0.052099586
0.30892196 0.070486046 0.053382754
0.30871069 0.071533859 0.053651392
0.30917752 0.071861178 0.053136349
0.30767941 0.073852122 0.053453207
0.30756038 0.074518129 0.053301215
0.30756819 0.07520929 0.053301692
0.30923793 0.072685584 0.051050007
0.30912578 0.072429225 0.051992893
0.30945951 0.07376498 0.051303744
0.30928174 0.073495209 0.052167356
0.3088277 0.072591722 0.053778529
0.30871582 0.073525354 0.053989332
0.30908006 0.072531223 0.053010345
0.30930519 0.073610462 0.053267717
0.30935711 0.074434534 0.05117178
0.30960447 0.074593782 0.052542567
0.30969071 0.07519047 0.051564932
0.30973622 0.075599007 0.052151799
0.30832171 0.076047122 0.054196954
0.30957669 0.074698269 0.05358088
0.30913198 0.074719906 0.054117203
0.30978635 0.075718388 0.053284049
0.30939466 0.075460702 0.054423928
0.3135767 0.071966767 0.050926685
0.31010956 0.075508431 0.050991595
0.31110847 0.075941056 0.051118016
0.31364727 0.072670162 0.051003695
0.31356168 0.073342025 0.050891995
0.31273305 0.074665159 0.050948143
0.31253043 0.075713433 0.051227927
0.31400406 0.0744638 0.051414549
0.3099618 0.076622739 0.051874042
0.30855405 0.076781601 0.054466844
0.30878812 0.07751599 0.054738641
0.3099094 0.07643149 0.053423226
0.30968505 0.07620652 0.054763675
0.30898839 0.07893151 0.054961205
