# .PCD v0.7 - Point Cloud Data file format
VERSION 0.7
FIELDS x y z
SIZE 4 4 4
TYPE F F F
COUNT 1 1 1
WIDTH 1404
HEIGHT 1
VIEWPOINT 0 0 0 1 0 0 0
POINTS 1404
DATA ascii
0.42778587 0.11262363 0.040778279
0.42765847 0.11358665 0.040606678
0.42654401 0.11258984 0.041294336
0.42675167 0.11356592 0.041027576
0.42714918 0.11260386 0.041014433
0.4269886 0.11454721 0.040801167
0.42696381 0.11552869 0.040771008
0.42756051 0.11455506 0.040475488
0.42756927 0.11554253 0.040491819
0.42641109 0.11453831 0.041118979
0.42639387 0.11552125 0.04109937
0.42872667 0.11265081 0.040405095
0.42858571 0.11361115 0.040214479
0.42965168 0.11267513 0.040010452
0.42958692 0.11364907 0.039925337
0.42850485 0.11458246 0.040107071
0.42868561 0.11588189 0.039804816
0.42839918 0.11545552 0.04015084
0.42953497 0.11462535 0.039857984
0.42959046 0.11569875 0.03956759
0.43120992 0.10872582 0.038797855
0.43186796 0.11072287 0.038602948
0.43096894 0.10877931 0.039582253
0.43048477 0.10845859 0.040027201
0.43094835 0.10976173 0.039558649
0.43043366 0.10976405 0.039962709
0.43132612 0.10813932 0.039515615
0.43155485 0.10977646 0.039281964
0.43101758 0.11076054 0.0396595
0.43042433 0.11074837 0.039954424
0.43044266 0.11173752 0.039984643
0.4318006 0.11080779 0.039628267
0.43151036 0.11145988 0.039787769
0.43367338 0.11171255 0.041115999
0.4303475 0.1127058 0.039857388
0.4302873 0.11368039 0.03977865
0.4311316 0.11275262 0.039827347
0.43138045 0.11214125 0.040169477
0.43123347 0.1137563 0.039973497
0.43031842 0.11467138 0.039826512
0.43066624 0.11554637 0.039568227
0.43130565 0.11475416 0.040078402
0.43239376 0.11255856 0.040460289
0.43236464 0.1135377 0.040424705
0.43232623 0.11451507 0.040376425
0.43206769 0.11545272 0.040022135
0.43403608 0.11505634 0.041636944
0.43394005 0.11569427 0.041506767
0.41868365 0.11683193 0.042758703
0.41861027 0.1174776 0.042660117
0.4196699 0.1168655 0.042440951
0.41935849 0.11751571 0.042572141
0.41842481 0.11843313 0.042409778
0.41874921 0.12004384 0.041747451
0.41844288 0.11961299 0.042067844
0.41946077 0.1184749 0.042159796
0.41949072 0.11975096 0.041649342
0.42061919 0.11661005 0.042627692
0.42047778 0.11757241 0.042437136
0.42166683 0.11657604 0.042765658
0.42154539 0.1176202 0.042232513
0.42043406 0.11883496 0.04182601
0.42047536 0.11818397 0.041880488
0.42040709 0.11967737 0.041421574
0.42148399 0.11867523 0.041781664
0.4216345 0.11951745 0.041249633
0.4187361 0.12069997 0.041731119
0.41810298 0.1206824 0.04197669
0.41849697 0.12164686 0.041407347
0.41969132 0.12072732 0.041371226
0.41948092 0.12167883 0.041086346
0.4188171 0.12391557 0.040740609
0.41962081 0.12264499 0.040724993
0.41970655 0.12372666 0.040475208
0.41865584 0.12261643 0.041071892
0.41847745 0.12347909 0.041015703
0.42063865 0.12182007 0.040633917
0.42159072 0.1207803 0.04063803
0.42157724 0.12164021 0.040437061
0.42072052 0.12043837 0.041112065
0.42158401 0.12016661 0.041182518
0.42055207 0.12266793 0.040332675
0.42059937 0.12353843 0.040214855
0.42152119 0.12269732 0.039992809
0.42166686 0.12399309 0.039640725
0.42151821 0.1233547 0.039990902
0.42271727 0.11674644 0.042724311
0.42268899 0.11768141 0.042133391
0.4234159 0.11710501 0.042572737
0.42380059 0.11773714 0.041991472
0.42270219 0.11895283 0.041600108
0.42255801 0.11831614 0.041955948
0.42238331 0.11955532 0.041164756
0.42344248 0.11898947 0.041504264
0.42380399 0.118395 0.041998625
0.42333221 0.11962782 0.041355252
0.42456454 0.11749612 0.042483926
0.42593133 0.11651868 0.041579604
0.42589676 0.11660594 0.042644501
0.42590916 0.11759311 0.042665243
0.42452207 0.1190392 0.04131943
0.42452329 0.11842829 0.041874886
0.42446345 0.11968625 0.041241229
0.42525148 0.11846311 0.041764021
0.42567113 0.11942963 0.041232586
0.42382479 0.12404391 0.038708568
0.42451626 0.12374236 0.038544834
0.42521495 0.1237708 0.038392663
0.42262232 0.12082088 0.040384769
0.42295885 0.12210351 0.039738536
0.42248064 0.12178341 0.040193617
0.4235673 0.12056345 0.040569067
0.42366782 0.12152153 0.040154219
0.42266858 0.12021657 0.041002452
0.42254114 0.12273538 0.039723635
0.42247972 0.12358716 0.039456606
0.42358908 0.12244947 0.039492548
0.42349783 0.1236099 0.039000034
0.42437389 0.12061109 0.040565014
0.42482936 0.12158434 0.040082097
0.42550895 0.1206698 0.040457457
0.42549175 0.12160715 0.039880514
0.42448846 0.12259185 0.039245367
0.42543173 0.12253761 0.039244294
0.41861668 0.11620814 0.043220043
0.41965473 0.11625099 0.042973161
0.42381513 0.11651811 0.043118238
0.42477822 0.11659488 0.043329597
0.42553133 0.11663465 0.043253422
0.42524922 0.11724156 0.042868137
0.42169893 0.12785745 0.03858459
0.41841885 0.12455166 0.040753663
0.4186359 0.12553096 0.040497541
0.41970381 0.12458889 0.040288866
0.41957676 0.1255549 0.04011786
0.41856545 0.12650651 0.040403962
0.4187372 0.12747827 0.04008624
0.41975927 0.12652823 0.039814711
0.41916013 0.12651703 0.040106297
0.41966689 0.12750001 0.03969121
0.42068136 0.12461919 0.039959908
0.42051503 0.12557846 0.039735079
0.42163634 0.12464579 0.039600909
0.42144644 0.12560095 0.039343596
0.42066893 0.12654695 0.039393008
0.42055076 0.12751436 0.039234042
0.42156649 0.12656371 0.038955092
0.42151529 0.12721303 0.038886905
0.42071858 0.12955289 0.038543504
0.42158544 0.12849671 0.038430929
0.42153341 0.12914595 0.038361669
0.42045116 0.13041532 0.038550377
0.4211396 0.13044053 0.038382053
0.41887695 0.12877381 0.039725542
0.41835433 0.12877515 0.040121794
0.41883594 0.12975401 0.039672136
0.41947412 0.12878451 0.039431274
0.4196282 0.12975334 0.039089203
0.4181276 0.12915307 0.040923119
0.41831839 0.12926914 0.042292476
0.41907203 0.12987694 0.041105628
0.41930473 0.12999919 0.042532444
0.41978085 0.13043547 0.039300263
0.41967297 0.13054538 0.040819168
0.41846758 0.13060693 0.042499423
0.41837281 0.13182172 0.041265011
0.41893607 0.1312539 0.04203248
0.41950312 0.13064519 0.04225105
0.41961262 0.1318918 0.041295409
0.41980964 0.13130835 0.042117357
0.42038634 0.12847435 0.039011717
0.42007703 0.12912506 0.039146066
0.420901 0.13114454 0.039169669
0.42082053 0.13121615 0.040171266
0.42071542 0.13153063 0.041508514
0.42167217 0.13200785 0.041340709
0.42274094 0.12573475 0.038709641
0.42372912 0.12468553 0.038579345
0.42357361 0.12564602 0.038368881
0.42248029 0.12658319 0.038539886
0.42249742 0.12744838 0.03838098
0.42340183 0.12660399 0.038135886
0.42355406 0.12728649 0.038348079
0.4243148 0.12469487 0.03827107
0.42426187 0.12567228 0.038201869
0.42525876 0.12476413 0.038457036
0.42592132 0.12774265 0.03826797
0.42256224 0.12466761 0.03920269
0.42238754 0.12529625 0.038964868
0.4231379 0.12467526 0.038880229
0.42594647 0.12553585 0.039408684
0.42500734 0.12678131 0.039233208
0.42409432 0.12803203 0.039094567
0.42603743 0.12686393 0.039539337
0.42558509 0.12748942 0.039475203
0.42295372 0.12858966 0.038641095
0.42210895 0.12985343 0.038597822
0.42391086 0.13153002 0.037740648
0.42361444 0.13156727 0.038447022
0.42477703 0.12994154 0.037813425
0.42473108 0.12964842 0.038306296
0.42558163 0.12867233 0.037802935
0.42525792 0.12870586 0.038471699
0.4256607 0.12962747 0.037357926
0.42484325 0.13183808 0.03679657
0.4256466 0.13056782 0.036784053
0.42561856 0.13162999 0.036377471
0.42456555 0.13056448 0.037524223
0.42411447 0.13057715 0.038017631
0.42462596 0.13142185 0.037239075
0.42511988 0.13056836 0.037173033
0.42341399 0.12932131 0.039276719
0.42394787 0.13006398 0.040013433
0.42257115 0.13165402 0.040351272
0.42307633 0.13066554 0.039929867
0.42374814 0.13200089 0.039745688
0.42358768 0.13159405 0.040265124
0.42232251 0.13202691 0.041122079
0.42451733 0.12875763 0.039679527
0.42475089 0.1297372 0.039448082
0.42467237 0.12943915 0.039895535
0.42537951 0.12834546 0.039380748
0.42440796 0.13070914 0.039536238
0.42410731 0.13074583 0.040235281
0.41841689 0.12977962 0.04316644
0.42689538 0.11650237 0.040680647
0.42685682 0.11715268 0.040630102
0.42749351 0.11651477 0.040391326
0.42773119 0.11749567 0.040166199
0.42638075 0.11650476 0.041085243
0.42624652 0.11718473 0.041459501
0.42661673 0.11795291 0.04252851
0.42713916 0.11785932 0.041022301
0.42708176 0.11794192 0.04205668
0.42654467 0.11977205 0.040767372
0.42786241 0.11845782 0.039794087
0.42749155 0.11848533 0.040396929
0.42624837 0.11854494 0.042023778
0.4269225 0.1192269 0.041842341
0.42745769 0.11857176 0.041464567
0.42710793 0.11860287 0.042095304
0.42778048 0.1195666 0.04135716
0.42842674 0.11653981 0.04000777
0.42855778 0.11750176 0.039635181
0.42967269 0.1165736 0.039499462
0.42948186 0.11752508 0.039239615
0.42845297 0.11846873 0.039494634
0.42855072 0.11914265 0.039632797
0.42828143 0.11918774 0.040375948
0.42941692 0.11849889 0.039154232
0.42920053 0.1191639 0.039415956
0.4295907 0.11993412 0.040517211
0.42839012 0.11958076 0.041085005
0.42628807 0.12353393 0.038756847
0.42949176 0.12306188 0.038720489
0.42699915 0.12102732 0.039727926
0.42645165 0.12069559 0.040085793
0.42651308 0.12164617 0.039617181
0.42767581 0.12076996 0.040103614
0.42757714 0.1216926 0.03941381
0.42645368 0.12249694 0.039352894
0.42781305 0.12271771 0.039744139
0.42794901 0.12372522 0.039936185
0.42843139 0.12052655 0.040588975
0.42869735 0.121794 0.039847374
0.42879403 0.12115437 0.039978147
0.42940563 0.12060374 0.040821433
0.42940319 0.1218245 0.039708376
0.42965358 0.12121147 0.040052176
0.42871037 0.12285993 0.03949821
0.42873269 0.12372373 0.039346993
0.42934692 0.1224259 0.039075315
0.42959565 0.1237357 0.038867712
0.43188834 0.11992088 0.03867805
0.43280566 0.11989689 0.037715912
0.43248221 0.11960447 0.038383543
0.43372002 0.11869881 0.038422763
0.43363985 0.11970109 0.037383597
0.43308818 0.11929014 0.038105965
0.43074 0.11662263 0.039303184
0.43098754 0.11732301 0.039649844
0.43141115 0.11805397 0.040240765
0.43083435 0.11968482 0.040564775
0.43177557 0.11877382 0.04074955
0.43178159 0.1199941 0.039647579
0.43171111 0.11960592 0.040292263
0.43238717 0.11649385 0.040470719
0.43256092 0.11750826 0.040717006
0.43361366 0.11788315 0.039202731
0.43343386 0.11752298 0.040254593
0.4338094 0.11665361 0.041330159
0.43264729 0.11846037 0.040283382
0.43219709 0.11931875 0.039103985
0.43310463 0.11872962 0.039244533
0.43179607 0.12056091 0.038553119
0.43206155 0.12117171 0.037806749
0.43180507 0.12154643 0.038570583
0.43050528 0.12277152 0.038448721
0.43044603 0.12374556 0.038371146
0.43184716 0.12253749 0.038633943
0.43147141 0.12374038 0.037558913
0.43141645 0.12311986 0.038038611
0.43359396 0.12149109 0.03658241
0.43271381 0.1205371 0.037591457
0.43224245 0.12054688 0.038055062
0.43276343 0.1213901 0.037291925
0.43239594 0.12188536 0.038275361
0.43353325 0.12054203 0.037052929
0.43307775 0.12182111 0.036985278
0.43376553 0.12250465 0.036827207
0.43279764 0.12256478 0.038278222
0.43238574 0.12376116 0.037151933
0.43257058 0.12318167 0.037965655
0.43343717 0.12253881 0.037489891
0.43351638 0.12361521 0.037232757
0.43040213 0.12063923 0.040528297
0.43051991 0.12188026 0.039581597
0.43050897 0.12126791 0.040121436
0.43149972 0.12060098 0.039259315
0.43122405 0.1206446 0.039993763
0.4314914 0.12158331 0.039252639
0.43118799 0.12129405 0.039946914
0.427665 0.12555778 0.038436174
0.42800808 0.12806594 0.036688089
0.42665082 0.12679051 0.038155675
0.42665589 0.12773287 0.037608624
0.42760983 0.12658437 0.037620109
0.42717367 0.1261766 0.038317561
0.42747173 0.12773645 0.037061691
0.42868149 0.12498304 0.038723826
0.42876917 0.12556559 0.037731171
0.4281981 0.12555853 0.038057327
0.42959008 0.12479856 0.038492601
0.42974097 0.12559547 0.037401974
0.4284339 0.12764014 0.036530852
0.42950732 0.12682545 0.036524415
0.42958048 0.12777868 0.036071062
0.42857257 0.12659778 0.037090898
0.42952338 0.12621556 0.037103057
0.4268468 0.12428485 0.039531112
0.42785031 0.12469279 0.039803863
0.42723304 0.12500596 0.040067315
0.42728594 0.12562683 0.03958565
0.42653295 0.12645002 0.03947838
0.42852005 0.1245776 0.039242506
0.42673901 0.1299589 0.036616206
0.42754513 0.12869026 0.036608696
0.42749271 0.12954305 0.036353629
0.42644382 0.12868336 0.037319541
0.42655754 0.12931558 0.036921024
0.42651045 0.13057892 0.036302805
0.42674524 0.13184544 0.035515189
0.42642194 0.13122158 0.036183059
0.4280526 0.13061397 0.03564322
0.42742211 0.13059771 0.035887837
0.42766848 0.13145632 0.035487413
0.4290024 0.12871212 0.035832644
0.4284085 0.12870157 0.036127687
0.42865136 0.12977813 0.035723686
0.42831898 0.12934369 0.036006689
0.42961895 0.12872641 0.03556931
0.42968556 0.12980276 0.035293818
0.42869151 0.13063157 0.035410404
0.42846841 0.13158074 0.035105228
0.42966646 0.13066071 0.035084903
0.42922002 0.13128799 0.035027623
0.43054423 0.12462199 0.038325351
0.43084991 0.12564838 0.037264228
0.43167368 0.12485298 0.037659246
0.43144816 0.12443705 0.038089156
0.4316805 0.125699 0.037299991
0.43050259 0.12685896 0.036228061
0.43071741 0.12750711 0.035970092
0.43150342 0.12689346 0.03594017
0.43137145 0.12752782 0.035759926
0.43064177 0.12626976 0.036978006
0.43138957 0.12630634 0.036898613
0.43297803 0.124428 0.036860228
0.43358541 0.12444147 0.036586761
0.43375903 0.12512645 0.036832452
0.43250442 0.12476504 0.037322283
0.4324683 0.12574254 0.037277222
0.43309629 0.1251037 0.03702879
0.43350407 0.12578344 0.037040651
0.43222427 0.12692544 0.035823703
0.4324162 0.12634543 0.036648095
0.43244573 0.1275744 0.03557539
0.43351403 0.12680423 0.036126573
0.43354672 0.12762547 0.035429239
0.43053684 0.12854239 0.035350841
0.43055239 0.12940571 0.035190165
0.43146566 0.12836029 0.035148222
0.43236876 0.12817416 0.03491056
0.44157338 0.064036936 0.050715804
0.44000828 0.06588386 0.050779581
0.43995005 0.066527426 0.050702214
0.43973568 0.067462593 0.050410092
0.44085526 0.064646959 0.050835133
0.4406437 0.06558232 0.050546706
0.44150811 0.06467855 0.050628901
0.44171059 0.065916568 0.049803615
0.44144103 0.065497123 0.05016911
0.44075608 0.066532932 0.050151467
0.44079733 0.067466758 0.049657166
0.44025418 0.067461744 0.050016403
0.44162345 0.066553116 0.049686193
0.44166058 0.067485824 0.049185961
0.44815755 0.05990237 0.049837947
0.44898367 0.059978426 0.049879074
0.44974673 0.06003885 0.049832463
0.44251403 0.064075232 0.050353408
0.44357488 0.062891915 0.050709009
0.4434599 0.063718937 0.050368071
0.4446609 0.062637702 0.05054915
0.44471848 0.063573532 0.050077796
0.44557101 0.062669158 0.05014649
0.4456234 0.063603565 0.049667716
0.44245869 0.064719096 0.050280333
0.44249016 0.06564977 0.049772322
0.44343001 0.064764738 0.049961209
0.44347113 0.065697461 0.049466699
0.44363427 0.06758298 0.048590183
0.44256538 0.066591144 0.049325347
0.44265157 0.067535326 0.048893392
0.4434976 0.066626936 0.048951507
0.4457092 0.065796919 0.048685491
0.44456217 0.064609393 0.049680274
0.44416845 0.064160213 0.049871802
0.44467267 0.065865993 0.049098492
0.44563994 0.06466002 0.049325664
0.44511175 0.065450132 0.048964739
0.44442904 0.066662647 0.048577309
0.44460189 0.067627102 0.04826659
0.44571921 0.066721909 0.048146844
0.44576019 0.067983001 0.047653675
0.44549575 0.067565016 0.048026163
0.44672635 0.061839841 0.050639927
0.4476611 0.061877728 0.050273538
0.44650799 0.063035563 0.049784303
0.4466098 0.062403873 0.049922466
0.44653311 0.06363482 0.049264967
0.44756165 0.062774047 0.049582034
0.44745851 0.06366995 0.048884869
0.44879377 0.061900377 0.04962647
0.44854081 0.061638266 0.050387502
0.44970119 0.0619317 0.049223065
0.44970134 0.061404102 0.050337672
0.4486219 0.063523345 0.048651498
0.44970107 0.063575074 0.04830249
0.44863445 0.062517479 0.049407482
0.44842142 0.063121587 0.049113035
0.44960213 0.062563464 0.049088717
0.44866422 0.067788146 0.046689332
0.4498733 0.066578142 0.04670006
0.44966936 0.067513525 0.046419978
0.44660318 0.064901918 0.048813105
0.44639534 0.065508336 0.048526049
0.44747296 0.064923331 0.048354685
0.4473528 0.065550826 0.048190713
0.44650525 0.064284697 0.049230516
0.44749016 0.064334199 0.048933864
0.44666052 0.066760138 0.047788024
0.44657037 0.066144407 0.048216641
0.44666848 0.067814969 0.047433574
0.44755873 0.066590138 0.047554452
0.44754472 0.06763941 0.047169048
0.44903696 0.064986914 0.047752738
0.44842243 0.064568706 0.048379064
0.4486011 0.065600775 0.047704756
0.44964212 0.065007418 0.047483563
0.44965798 0.064418316 0.048061609
0.44955391 0.065642342 0.047364354
0.44842958 0.066413686 0.047283012
0.44844002 0.067468598 0.046932101
0.44926304 0.066556573 0.046961963
0.43801457 0.05971235 0.055760145
0.43732747 0.059735589 0.056473553
0.43637604 0.059757851 0.05737561
0.43835551 0.060069412 0.052905917
0.4388684 0.059665978 0.054722428
0.43923992 0.059629068 0.054126501
0.43843663 0.059687942 0.055234551
0.43964309 0.059264071 0.056344211
0.43865734 0.059277751 0.057197392
0.44034386 0.059244245 0.05565083
0.44134131 0.058770224 0.056473851
0.44047642 0.058749288 0.056939006
0.43478835 0.060493737 0.053535104
0.43452358 0.060556561 0.054279327
0.43448779 0.061142787 0.053678811
0.43552905 0.060547009 0.053446651
0.4349165 0.063816532 0.053726673
0.43461218 0.063388415 0.054044563
0.43569726 0.062688887 0.0547961
0.43557897 0.063521206 0.053529084
0.43637323 0.061410859 0.05461359
0.43803191 0.060245946 0.054678917
0.43760198 0.061519489 0.054646134
0.43665987 0.062732361 0.054460824
0.43651241 0.063620225 0.0537076
0.43779284 0.062488563 0.054359913
0.43756926 0.064014949 0.053504467
0.43754297 0.063414067 0.05401957
0.43450105 0.060678363 0.055355906
0.43453795 0.060814485 0.056512713
0.43439418 0.061968431 0.055214524
0.43586946 0.060227215 0.056128621
0.43554413 0.062057316 0.055136204
0.43448186 0.060599238 0.057539403
0.43546242 0.060318932 0.057227433
0.43450576 0.062653244 0.055370808
0.43514591 0.062681779 0.055144548
0.43655667 0.060203932 0.055414259
0.43743306 0.060555734 0.054962397
0.43673795 0.062157005 0.055119514
0.43736428 0.062182426 0.054875374
0.43454391 0.064981222 0.052664757
0.4345004 0.065629177 0.052607715
0.43570301 0.064741768 0.052596807
0.43542731 0.065663174 0.052221179
0.43453687 0.064383686 0.053206682
0.43514788 0.064404875 0.052939415
0.43456089 0.066568911 0.052140772
0.43457219 0.067497291 0.051605821
0.43588191 0.066634193 0.051742792
0.43522957 0.066603437 0.051952839
0.43555522 0.067544132 0.051296353
0.43659359 0.064500943 0.052714705
0.43631664 0.065421604 0.052336872
0.43708807 0.065809906 0.052294016
0.43776089 0.064655721 0.05321753
0.43759018 0.065272212 0.052984834
0.43665493 0.066693619 0.051699996
0.43628043 0.067591906 0.051187038
0.43805349 0.066572949 0.052521825
0.4378134 0.06750194 0.052194655
0.43836966 0.060681779 0.054408193
0.43858755 0.06156905 0.054344058
0.43979836 0.060952872 0.053796172
0.43914729 0.060921118 0.054005027
0.43974686 0.061597496 0.053728223
0.43911374 0.061570212 0.053962111
0.43893293 0.06370052 0.05261308
0.43963867 0.062758878 0.052474022
0.43988413 0.06400694 0.051709294
0.43963704 0.063592978 0.052105825
0.43863258 0.062590934 0.053671915
0.43848181 0.062200546 0.054201126
0.43841556 0.063633971 0.053377312
0.43954813 0.062383134 0.053087395
0.44011432 0.060116947 0.05200696
0.44069171 0.061044067 0.053923488
0.44077221 0.061656967 0.053483129
0.44157997 0.060741767 0.053487122
0.44176579 0.061708778 0.053194761
0.4407531 0.062776178 0.051795602
0.44035572 0.062477738 0.052354753
0.44068405 0.063813023 0.051334698
0.44160426 0.062792912 0.051308274
0.44143826 0.062222205 0.052187204
0.4415395 0.063434526 0.051222146
0.43872613 0.064636871 0.052331686
0.43900448 0.065893456 0.051612496
0.43842426 0.065613158 0.052474439
0.4394348 0.064619057 0.051645935
0.43941477 0.065470055 0.051437419
0.43832874 0.064666763 0.052892566
0.43864578 0.066589668 0.052230716
0.43897271 0.067200601 0.051575422
0.43863159 0.067572042 0.052216291
0.43927523 0.066553168 0.051435232
0.43924189 0.067620046 0.051209491
0.44025183 0.06462729 0.051110268
0.44015443 0.065261379 0.050978899
0.44364262 0.058760405 0.054672599
0.44535452 0.057615787 0.054823875
0.44266158 0.058775142 0.055531144
0.4425545 0.058485076 0.055935562
0.4431774 0.058774054 0.055136919
0.44385737 0.058287203 0.056077838
0.44470868 0.058305077 0.055595875
0.44553459 0.058316678 0.055078745
0.44644058 0.058348298 0.054673672
0.44758332 0.058374248 0.054043114
0.44851422 0.057887077 0.054783344
0.44949454 0.057937801 0.054484844
0.44874835 0.058405854 0.053444326
0.44966477 0.058440298 0.053055644
0.44667003 0.057750113 0.054989696
0.44778293 0.057833835 0.054874301
0.44233054 0.060405731 0.052859664
0.44248453 0.061693452 0.052525043
0.44399858 0.061745346 0.051849246
0.44366208 0.061462253 0.052492201
0.44234908 0.061131135 0.053445458
0.44355732 0.060579628 0.053453565
0.44325423 0.061161578 0.053035736
0.4425931 0.062447485 0.051381946
0.44252837 0.063484669 0.050926924
0.44351166 0.062283009 0.051174283
0.44457728 0.061759546 0.051541686
0.44459605 0.061235502 0.052678227
0.44538343 0.060644984 0.052658439
0.44553098 0.06180194 0.051200569
0.44541511 0.061244965 0.052149713
0.44447982 0.060614586 0.053068995
0.444112 0.062302411 0.050896525
0.44639701 0.06070257 0.052402139
0.44657373 0.061273985 0.051538289
0.44708216 0.060679108 0.05168736
0.4476313 0.061342359 0.051344395
0.44866598 0.060813695 0.051673532
0.44817865 0.060821682 0.052106619
0.44827461 0.061372787 0.051129341
0.44951984 0.060832091 0.051196039
0.4507727 0.060100101 0.049596608
0.45150638 0.059432462 0.048944473
0.45273459 0.059084326 0.050671339
0.45234126 0.059511289 0.049000978
0.45356998 0.059623808 0.049054205
0.45357132 0.059164032 0.050732255
0.45569035 0.059764892 0.048687994
0.45471746 0.059716135 0.048993945
0.45463952 0.059236862 0.050560713
0.45570827 0.05930993 0.050391078
0.4568882 0.059870228 0.048702121
0.45638037 0.059348598 0.050221562
0.45786881 0.059986293 0.048971057
0.45750904 0.059437007 0.05013907
0.45172796 0.062046915 0.048716903
0.45027637 0.060826376 0.050582051
0.45062494 0.061703376 0.049400747
0.45165014 0.060124427 0.049152255
0.45134842 0.060898989 0.050412297
0.45145077 0.061451159 0.049441755
0.45058894 0.062614277 0.048797488
0.45063901 0.063416131 0.048127573
0.45152661 0.06265308 0.048438072
0.4515003 0.06389454 0.047850251
0.45153612 0.063247383 0.04789567
0.45251369 0.060145363 0.048688889
0.45301461 0.061516762 0.048846006
0.45387292 0.060160369 0.047804117
0.45332187 0.060152531 0.04814744
0.45283884 0.060946658 0.049713731
0.45223814 0.060926467 0.04998672
0.45240724 0.061495006 0.049109817
0.45374227 0.060977638 0.0493083
0.45393682 0.061616689 0.04902792
0.4527041 0.062423334 0.048415303
0.45249304 0.063618749 0.047566473
0.45376062 0.062755302 0.047666788
0.45338961 0.062464304 0.04826206
0.45362854 0.06377279 0.04711445
0.45149124 0.065733433 0.046730638
0.45050254 0.066604324 0.046465218
0.45062253 0.067554839 0.046080887
0.45149112 0.066654459 0.046176642
0.45154494 0.067588836 0.045698643
0.45261121 0.06557624 0.046439886
0.4534336 0.064578064 0.046658397
0.45392102 0.065818176 0.045673132
0.45351416 0.065517895 0.046218514
0.45261565 0.066804968 0.045707505
0.45253599 0.067639403 0.045414448
0.45351717 0.066636607 0.045482915
0.45343691 0.067668363 0.045003295
0.45063853 0.064862221 0.04739086
0.45053101 0.065689869 0.04705894
0.45151943 0.064491592 0.047321379
0.45175463 0.065141469 0.047097445
0.45248306 0.064536378 0.046998739
0.45240766 0.065173805 0.046897411
0.45462835 0.064024121 0.04665947
0.45552626 0.06385608 0.046431739
0.45738509 0.060979791 0.046607554
0.4563368 0.06287846 0.046823263
0.45643502 0.064085051 0.045848727
0.45652094 0.06351497 0.046528101
0.45714617 0.062950298 0.046848416
0.45752972 0.063571692 0.046273947
0.45442593 0.060168728 0.047463417
0.45461464 0.061000958 0.048859477
0.45552897 0.060249731 0.047340751
0.45542213 0.061008126 0.048318863
0.45558617 0.06170404 0.048557103
0.45469141 0.061675146 0.04897356
0.45473376 0.062803164 0.047359884
0.45459133 0.062241092 0.048276067
0.45459971 0.063425511 0.047175467
0.45556149 0.062551789 0.047406614
0.45649859 0.060777679 0.04740886
0.45639062 0.061710507 0.048012972
0.4577086 0.060470641 0.047624707
0.45753467 0.061736926 0.047389269
0.45711035 0.061760485 0.04791081
0.45646477 0.062319383 0.047561765
0.4577142 0.062699273 0.04709065
0.45442754 0.064630434 0.046380162
0.45455283 0.06584534 0.045443892
0.45463714 0.06527365 0.046120644
0.45537594 0.064671755 0.04603833
0.45553222 0.06569656 0.045331638
0.45479023 0.067088112 0.044666171
0.45440704 0.067714073 0.044690847
0.45539057 0.067107528 0.044392467
0.45578614 0.067556404 0.044207454
0.45454964 0.066676743 0.045071643
0.45574427 0.066537738 0.044889688
0.45636535 0.064723238 0.045755506
0.45650932 0.065547429 0.045216996
0.4575114 0.064485744 0.045693576
0.45739821 0.065704547 0.044980645
0.45638394 0.06656687 0.044672608
0.45673135 0.067508079 0.044048429
0.45741692 0.066628478 0.044452488
0.45768818 0.067878589 0.043722928
0.45751423 0.067244217 0.044033051
0.45864818 0.058939658 0.050628185
0.4587847 0.06008625 0.049149275
0.45872837 0.059548452 0.050186753
0.4595558 0.058972806 0.050234318
0.45944142 0.059597671 0.050077558
0.46079832 0.059678867 0.049762249
0.46017176 0.059651345 0.049993515
0.4614194 0.059705049 0.049523473
0.4621343 0.059754938 0.049418688
0.46053427 0.068001702 0.042706728
0.46152717 0.068053626 0.042432904
0.46247438 0.067700349 0.042467356
0.46378005 0.066977829 0.042824984
0.46335363 0.06752786 0.042218566
0.46449649 0.067026272 0.04272306
0.46406788 0.067575574 0.042112827
0.46522462 0.067077637 0.04263854
0.46506906 0.067693397 0.04242146
0.45836592 0.061030373 0.04631412
0.45894837 0.061701298 0.046023369
0.4591139 0.061087698 0.046253324
0.45959419 0.061732978 0.045817256
0.45855519 0.063632704 0.046044827
0.45942992 0.062476024 0.046716332
0.4594993 0.06367372 0.045700431
0.45973173 0.063141011 0.046589732
0.46031457 0.061783373 0.045717955
0.46019429 0.061228395 0.046667695
0.46148729 0.061882094 0.04570204
0.46108121 0.061320737 0.04680717
0.46156335 0.062426105 0.044687748
0.46049345 0.062417969 0.04541558
0.46019012 0.06253615 0.046674252
0.46032232 0.063748986 0.045747876
0.46062887 0.063170642 0.046179533
0.46154878 0.063620672 0.045619011
0.46122712 0.06319046 0.045906901
0.45848101 0.060534269 0.047598481
0.45850685 0.061785296 0.047084451
0.45925385 0.06059806 0.047573566
0.45962387 0.060167015 0.049219489
0.4585886 0.062656961 0.04702111
0.46011978 0.060685337 0.047681928
0.46126193 0.060842127 0.048185825
0.46195436 0.061409786 0.046927929
0.46069613 0.060241424 0.049060464
0.46179694 0.060323164 0.0489434
0.45882607 0.065472245 0.044757962
0.45955932 0.065524757 0.044676542
0.45857984 0.064557038 0.045525432
0.45811644 0.065753117 0.044876695
0.45940685 0.064699359 0.045202851
0.45870915 0.066492952 0.044225018
0.4587892 0.06762898 0.043597937
0.45821518 0.067288205 0.043904424
0.45974571 0.066752881 0.043826222
0.45942777 0.066147238 0.044494748
0.45961878 0.067771345 0.043278378
0.46043634 0.064958066 0.044794917
0.4606781 0.065608226 0.044582486
0.4614341 0.065012142 0.044528723
0.46165884 0.065657973 0.044292212
0.46052605 0.064389676 0.045481384
0.46150839 0.064440161 0.045193434
0.46040392 0.066786781 0.043637991
0.46039385 0.066193104 0.044182181
0.46059284 0.067424253 0.043349683
0.46156716 0.066553511 0.043605328
0.46150714 0.067457274 0.042963386
0.46273285 0.061999232 0.045791864
0.46282554 0.062547013 0.044801474
0.46266145 0.063160434 0.044572711
0.46373606 0.063430905 0.044232529
0.46244952 0.06356363 0.045402348
0.46381319 0.062664285 0.045088291
0.46386218 0.062152356 0.046281815
0.46348172 0.063953973 0.045191169
0.46584991 0.061020061 0.046298563
0.46457183 0.063838594 0.043363273
0.46466619 0.063272536 0.044058204
0.46592486 0.063981891 0.043612242
0.46567923 0.063396066 0.044384122
0.46470082 0.062756702 0.045232654
0.46489531 0.062281549 0.04663527
0.46558297 0.062847883 0.045370221
0.46558738 0.062325388 0.046500087
0.46255937 0.060973115 0.048350334
0.46281385 0.061495483 0.047029972
0.46360454 0.060648855 0.048526842
0.46375805 0.061602578 0.047254562
0.46267289 0.060413569 0.049069166
0.46474177 0.061066702 0.047530055
0.46432775 0.06076622 0.048061073
0.46457201 0.061677098 0.047293425
0.4652034 0.061052695 0.047064066
0.46556139 0.061730787 0.047020435
0.46256939 0.064773247 0.044457376
0.46266168 0.065713257 0.044034362
0.46346807 0.064540222 0.044613004
0.46366823 0.065769568 0.04378283
0.46322489 0.065134078 0.044270515
0.46212661 0.064464808 0.044949293
0.46253392 0.066599615 0.043295264
0.46348181 0.066553436 0.043146651
0.46445888 0.064593151 0.044340014
0.46468666 0.065828927 0.043549359
0.4644376 0.065241568 0.044316173
0.46531826 0.064549305 0.043311894
0.46586126 0.065600194 0.043538451
0.46537519 0.065281257 0.043967366
0.46478367 0.066442817 0.043129444
0.46560836 0.066518158 0.043184519
0.45096344 0.057980984 0.05375731
0.45037824 0.05796431 0.054051518
0.45155114 0.057998374 0.053467035
0.4505305 0.058462135 0.052596331
0.45149034 0.058507636 0.052269697
0.45253059 0.058049157 0.053169549
0.45257458 0.058584496 0.052119076
0.4537378 0.058681354 0.052080989
0.45359313 0.058120981 0.05298996
0.45470333 0.0584668 0.052322209
0.45593178 0.058842301 0.051822305
0.45536688 0.058503471 0.052140474
0.45430225 0.058169156 0.052871823
0.45658493 0.058549345 0.05162394
0.45613486 0.05823946 0.052104115
0.45738509 0.058686033 0.051264167
0.46752942 0.062033057 0.042503834
0.46696591 0.064636871 0.042853713
0.46772665 0.065350607 0.04282558
0.46805805 0.067917556 0.042199254
0.46846449 0.064752012 0.04275012
0.46824497 0.065350801 0.042439938
0.46686149 0.061537087 0.044367492
0.46657753 0.061661109 0.045656681
0.4663288 0.061728731 0.046429276
0.46682942 0.064078197 0.043783545
0.4679504 0.0622693 0.044246435
0.46651375 0.062951326 0.045578599
0.46655208 0.062372796 0.046192348
0.46687484 0.063565314 0.044974446
0.46761864 0.06270732 0.045470029
0.46763986 0.063627213 0.044945478
0.46901566 0.062930167 0.043525219
0.46878862 0.063003018 0.044331074
0.46860105 0.063673593 0.044633985
0.46945411 0.063693017 0.044167042
0.46849275 0.063058466 0.045036674
0.4662348 0.064583927 0.042932868
0.4666751 0.065673247 0.043578804
0.46772572 0.064434774 0.04338026
0.46711951 0.065328479 0.043082833
0.4664306 0.066592947 0.043236732
0.46642146 0.067570508 0.043234229
0.46761853 0.066757858 0.043817878
0.46784884 0.066161856 0.0441432
0.46762946 0.068002664 0.043281376
0.46768415 0.067426682 0.043919802
0.46843219 0.064219698 0.043830633
0.46915293 0.064270467 0.043738723
0.46857873 0.066476867 0.043501198
0.46843806 0.067421272 0.043308794
0.45797729 0.099020392 0.034819841
0.4578957 0.099657357 0.034708858
0.461963 0.091896176 0.032524228
0.46263146 0.088114053 0.033448696
0.46249384 0.088738486 0.033256769
0.46232522 0.089683592 0.033023477
0.46215612 0.090628743 0.032789469
0.46228552 0.091310993 0.032984018
0.46268767 0.091509327 0.034705997
0.4595021 0.095851526 0.034708381
0.46198606 0.092555478 0.032564878
0.46198264 0.093536124 0.032570601
0.46099836 0.093985766 0.034570575
0.46180695 0.092739508 0.034585834
0.46202439 0.093982428 0.033775091
0.46144494 0.093571015 0.034451764
0.46173191 0.094464436 0.032218337
0.46182975 0.095466241 0.032370687
0.46055606 0.094601117 0.03450799
0.46043068 0.09555538 0.034337431
0.46183026 0.094595104 0.033501387
0.46137023 0.094607979 0.03397584
0.46156946 0.095666341 0.033515852
0.46132362 0.095251828 0.033915401
0.45877373 0.097442791 0.034812987
0.45950568 0.09650597 0.034720421
0.45964313 0.097460866 0.034359843
0.45861536 0.098717459 0.034598231
0.45875233 0.099672496 0.034236908
0.45946643 0.098731592 0.034118503
0.45958644 0.099683076 0.033732772
0.46146464 0.096370965 0.031852841
0.46160543 0.097054332 0.032063723
0.46033928 0.096516736 0.034215748
0.46082798 0.09758126 0.033604424
0.4605056 0.097150743 0.033893466
0.46140879 0.096522406 0.03348279
0.46154034 0.097475931 0.033113718
0.46129799 0.099059731 0.032780647
0.46131665 0.09966366 0.032244563
0.46055549 0.098741092 0.033413351
0.46038753 0.099686928 0.033181012
0.46138096 0.098423302 0.032893777
0.46243939 0.092436552 0.034357548
0.46217442 0.093360543 0.0339849
0.4498862 0.1085907 0.034671485
0.44933772 0.10951769 0.034464359
0.44873622 0.11057729 0.034560245
0.44844013 0.11173789 0.034337461
0.44942468 0.1104663 0.034030616
0.44936702 0.11176427 0.033959508
0.44777086 0.11269249 0.034524739
0.44761908 0.113646 0.034316957
0.44668329 0.11525446 0.034696221
0.4475027 0.11460613 0.034159482
0.44758067 0.11555395 0.033712745
0.44709674 0.11556135 0.034155846
0.44851768 0.11268511 0.033890128
0.44837976 0.11364123 0.033702016
0.44948846 0.11276832 0.034140706
0.44921342 0.11369847 0.03375715
0.44867587 0.11462901 0.033565879
0.44841552 0.11556271 0.033203274
0.44988978 0.11601536 0.033608317
0.43780446 0.12190887 0.034614921
0.43669498 0.12250961 0.034749389
0.43769479 0.12254563 0.034465075
0.43784028 0.12322623 0.034673452
0.43951845 0.12005726 0.034760118
0.44057515 0.11977658 0.03455621
0.44155517 0.11864012 0.034614801
0.44150317 0.11980103 0.034174025
0.43865323 0.12065348 0.034673333
0.43871391 0.12172619 0.03439061
0.43963438 0.12068693 0.034364522
0.4396711 0.12195843 0.033861637
0.43962029 0.12133992 0.034349084
0.43867067 0.12257759 0.034147859
0.43870464 0.12323894 0.034199893
0.43966085 0.12261212 0.033851504
0.43962365 0.12326105 0.033803701
0.44060647 0.12071884 0.03404367
0.4406381 0.12198915 0.033533514
0.44056016 0.12136604 0.033982754
0.4420011 0.12045119 0.033753753
0.44136381 0.12075926 0.033984184
0.44154811 0.12160376 0.033498686
0.44066268 0.12264869 0.033572674
0.44055513 0.12328538 0.03342557
0.44066474 0.12404942 0.034711361
0.44164938 0.12268272 0.03327322
0.44164211 0.12333652 0.033267617
0.44163424 0.12408027 0.034388661
0.43659782 0.12773752 0.034645319
0.43760836 0.12777399 0.03437674
0.43460664 0.1286899 0.034297228
0.43461955 0.12950866 0.033571005
0.43545246 0.12861846 0.034169734
0.43558899 0.12953764 0.033242404
0.4348588 0.13208497 0.032797098
0.43564785 0.13081561 0.032770276
0.43556333 0.13178545 0.032657683
0.4346697 0.13058122 0.033272903
0.43446574 0.13164125 0.032993715
0.43556753 0.13018981 0.033216417
0.4366473 0.12896913 0.033598125
0.4364011 0.12836021 0.034373403
0.43668181 0.12958688 0.03308785
0.43762344 0.12899952 0.033280849
0.43745399 0.12840346 0.034164071
0.4374404 0.12962472 0.033027649
0.43661633 0.13084421 0.03244108
0.43660641 0.13149813 0.032431245
0.43751764 0.13045366 0.032390911
0.43755376 0.13152322 0.03207314
0.43656158 0.13022274 0.032922983
0.43868268 0.12557322 0.034746647
0.43946704 0.12569624 0.034349997
0.43847787 0.12750354 0.034471333
0.43949592 0.12754148 0.034215242
0.44070828 0.1259314 0.033659637
0.44041851 0.12531678 0.034373343
0.44195384 0.12568124 0.033724129
0.44130898 0.12533389 0.033938885
0.44060078 0.12665655 0.034639001
0.44064242 0.12788424 0.033580184
0.44056302 0.12726045 0.03402698
0.44158137 0.12668866 0.034332275
0.4416849 0.12792638 0.033360481
0.44167647 0.12731466 0.033907712
0.44170952 0.1316409 0.030600667
0.43891561 0.12903863 0.032845736
0.43843541 0.12965812 0.032737553
0.43963432 0.12907022 0.032731295
0.43945301 0.12969528 0.032480121
0.43845278 0.12872182 0.033318877
0.4380756 0.12841904 0.033912182
0.43962502 0.1284574 0.033277333
0.43887752 0.13091141 0.031677723
0.43836138 0.13058567 0.03207612
0.43852589 0.13155238 0.031750619
0.43969572 0.13063119 0.031700969
0.43910533 0.13029337 0.031994343
0.43949246 0.13158074 0.031421065
0.44053546 0.12908845 0.032310665
0.44040254 0.12972137 0.032127559
0.44143835 0.12849599 0.032452762
0.44166899 0.1297563 0.031659067
0.44153523 0.12912303 0.032029867
0.44053912 0.12847792 0.03287518
0.44068804 0.13066405 0.031408846
0.44045913 0.13160914 0.031092227
0.44164222 0.13069075 0.031063497
0.44275564 0.11763737 0.034798265
0.44347048 0.11767128 0.034680605
0.44256839 0.11866439 0.034165699
0.44285131 0.11952575 0.033819556
0.4422459 0.11951168 0.034092307
0.44357371 0.11850026 0.034080703
0.44350302 0.11954805 0.033612609
0.44502133 0.11906964 0.034628272
0.44438481 0.11961111 0.033731699
0.44266781 0.12047589 0.033567369
0.44240877 0.12174064 0.033210635
0.44339144 0.12051068 0.033461988
0.4434104 0.12168384 0.033121306
0.44370162 0.12276477 0.032788515
0.44263193 0.12271618 0.032968938
0.44244796 0.12338465 0.033277988
0.44229573 0.12410347 0.034195423
0.44395137 0.12215348 0.033137441
0.44325513 0.1234331 0.033290744
0.44423315 0.12056631 0.033524275
0.44524789 0.12097949 0.033835292
0.44585621 0.12043262 0.034692764
0.445131 0.1216132 0.033674598
0.44448429 0.12280926 0.032767773
0.44472498 0.12219664 0.033104062
0.44461498 0.12353164 0.033522844
0.44683269 0.11654244 0.034353673
0.44698218 0.11750332 0.034008741
0.4477202 0.11651311 0.033353627
0.44762531 0.11747738 0.033226609
0.44767445 0.11972886 0.032749414
0.44761741 0.11865964 0.033036549
0.44725859 0.11853391 0.034409165
0.44742247 0.11945033 0.033519626
0.44733554 0.11952816 0.034526169
0.4485184 0.11651514 0.032791734
0.44864687 0.11759719 0.032606404
0.44922721 0.11654866 0.032669306
0.44940272 0.11751416 0.032361329
0.44866121 0.11878334 0.032448232
0.44852689 0.11974048 0.032265007
0.44987077 0.11853212 0.032470822
0.44957864 0.11946066 0.032062471
0.44769901 0.12071426 0.03279233
0.44674617 0.12049705 0.034826279
0.4466114 0.12178032 0.0346452
0.44748265 0.12044179 0.033612967
0.4473213 0.12050599 0.034513712
0.44785976 0.12172326 0.03302896
0.44759983 0.12148895 0.034352362
0.4463014 0.12270648 0.034212828
0.44626886 0.12368111 0.034174204
0.44758007 0.12279201 0.03433463
0.44742346 0.12374458 0.034119964
0.44861472 0.12101763 0.031834602
0.44835091 0.12059682 0.032210153
0.44839239 0.12167861 0.032089651
0.4494597 0.12082529 0.031526882
0.44957775 0.12170246 0.031514049
0.44844443 0.12234154 0.032169163
0.44972989 0.12275526 0.032306075
0.44948706 0.12373856 0.032534122
0.44839737 0.12287573 0.033425968
0.4485487 0.12375773 0.033460021
0.44933176 0.12310398 0.032873273
0.44262725 0.12481441 0.034668326
0.44261143 0.12570348 0.033525407
0.44343567 0.12461469 0.03430621
0.44347343 0.12562171 0.033239365
0.44288123 0.12795031 0.032795072
0.44345653 0.12795852 0.032480478
0.44254652 0.12671828 0.034004688
0.44254628 0.1276553 0.033447385
0.44353354 0.12675163 0.033708572
0.44363955 0.12737916 0.033299267
0.44441056 0.12541398 0.032683134
0.44562611 0.12548673 0.03271246
0.44452977 0.12446418 0.034349043
0.44539154 0.12488261 0.033504367
0.44563794 0.1243163 0.034413099
0.444592 0.12797241 0.031830072
0.44406855 0.12797287 0.032217979
0.44604772 0.1268211 0.03275609
0.44555232 0.12800109 0.03149724
0.44547969 0.12742332 0.032519758
0.44454819 0.12646289 0.033450216
0.44456762 0.12740254 0.032920599
0.44550037 0.12649062 0.033106446
0.4438172 0.12980649 0.030745745
0.4425793 0.13104202 0.030696988
0.44263381 0.13166261 0.030213594
0.44357878 0.13074896 0.03041485
0.44388086 0.13169399 0.029719234
0.44325 0.13167709 0.029955864
0.4447298 0.12982675 0.030343771
0.44560552 0.12955743 0.030453682
0.44469321 0.13108616 0.029735804
0.44468516 0.13047367 0.030285478
0.44452381 0.13171288 0.029500008
0.44526517 0.13109356 0.029416084
0.44559419 0.13049331 0.029878974
0.44556981 0.13175461 0.029288173
0.44300967 0.12853831 0.031852484
0.44235635 0.12851724 0.032057285
0.44277251 0.12948072 0.031523824
0.44223768 0.12915207 0.031894088
0.4435873 0.12854683 0.031540751
0.44335386 0.12948976 0.031217158
0.44236231 0.13039501 0.030950069
0.44449291 0.12856615 0.031129062
0.44441175 0.12920694 0.031018794
0.44561917 0.12862229 0.031031489
0.44873652 0.12789126 0.030555764
0.4497501 0.12663732 0.030480107
0.44976178 0.12809008 0.029564142
0.44941518 0.12746668 0.030197978
0.44690025 0.12556961 0.032826781
0.44755441 0.1249382 0.032621026
0.44758719 0.12559724 0.032672882
0.44664839 0.12491792 0.03302896
0.44660306 0.12434682 0.034089148
0.44765845 0.12434781 0.033329189
0.44648457 0.12640005 0.032619674
0.44695586 0.12810415 0.031795621
0.44647276 0.12745772 0.03223455
0.44760311 0.12653536 0.032137811
0.44768655 0.12748516 0.031698585
0.44714338 0.12748215 0.032057285
0.44854346 0.12464619 0.032329232
0.44850251 0.12561908 0.032279015
0.44937789 0.1243276 0.031817555
0.44955045 0.12501055 0.032069325
0.44963926 0.12563398 0.031635225
0.44867203 0.12653854 0.031396359
0.44821155 0.12748514 0.031314373
0.44949758 0.12621829 0.03087163
0.44622874 0.12929015 0.030771375
0.4478645 0.12971392 0.03083849
0.44666833 0.13058348 0.030274987
0.44607478 0.13113993 0.029435039
0.44772768 0.13067137 0.030651569
0.44763136 0.13163552 0.030522287
0.44868481 0.12873916 0.03030026
0.44876674 0.12968925 0.02985847
0.44831851 0.12970208 0.030352712
0.44968754 0.12873115 0.029463589
0.44951767 0.12968305 0.029229194
0.4496249 0.1306375 0.028823137
0.44967696 0.13170634 0.028528571
0.44865394 0.13065076 0.029705644
0.44827932 0.13067563 0.030305028
0.44886309 0.13194863 0.029448211
0.4484776 0.13155042 0.030217251
0.4491058 0.13063857 0.029216409
0.44913751 0.1312972 0.02926743
0.44680518 0.12873243 0.031586528
0.4476935 0.12854597 0.031340044
0.44725066 0.1296993 0.031096458
0.44809562 0.12811904 0.031154394
0.45069361 0.10766362 0.034681797
0.45156249 0.10767975 0.034222722
0.45392847 0.10592322 0.034754038
0.4525412 0.10678662 0.034478903
0.45274681 0.10770635 0.033648014
0.45358121 0.1065093 0.034263015
0.45385626 0.10744216 0.033531308
0.45338565 0.10712525 0.033989072
0.45540553 0.10339342 0.03457725
0.45671645 0.10088423 0.034730911
0.45668989 0.10153255 0.034699023
0.4574655 0.10047678 0.03447783
0.45754284 0.10154667 0.034221053
0.4564296 0.1037681 0.034347355
0.45722133 0.10409656 0.033784389
0.4576354 0.10352547 0.034373522
0.45447749 0.10592839 0.034406185
0.45546293 0.1057671 0.034304064
0.4549191 0.10777237 0.032787442
0.45565599 0.10781376 0.032709122
0.45465147 0.10656506 0.034094453
0.45448774 0.1074632 0.033301294
0.45564836 0.10660657 0.033821702
0.45563436 0.10720657 0.03324008
0.45665374 0.10479251 0.034678698
0.4563638 0.10599083 0.033707142
0.45641273 0.1053983 0.034338892
0.45800972 0.10447602 0.033785343
0.45747685 0.10480046 0.034158349
0.45755816 0.10583663 0.033528525
0.45727497 0.10541385 0.033874273
0.45648009 0.10787217 0.032757044
0.45764694 0.10761979 0.032727152
0.45659342 0.10663809 0.033475399
0.45656174 0.10723448 0.032868028
0.45759016 0.10667977 0.033204317
0.45084941 0.10890183 0.033782721
0.45054105 0.1084733 0.034094293
0.45038217 0.1095171 0.033688366
0.45149034 0.10859707 0.033561587
0.45010436 0.11016855 0.033864141
0.45247951 0.1085439 0.033462603
0.4522239 0.10971829 0.034618139
0.45349404 0.10882273 0.033403952
0.45299631 0.11162731 0.033473492
0.45253605 0.11163917 0.033948779
0.45353818 0.11163083 0.03311491
0.45382965 0.11374278 0.034683824
0.45353505 0.11484877 0.032573164
0.45399785 0.1160962 0.03154552
0.45348457 0.11569452 0.032319505
0.45298463 0.11433573 0.034613371
0.45332003 0.11448636 0.033584397
0.45315027 0.11557561 0.033729196
0.45573711 0.10848309 0.032832146
0.45463619 0.10842207 0.032955706
0.45471072 0.10914025 0.033636332
0.45548278 0.10918811 0.033608913
0.45413309 0.11164439 0.032832503
0.45463943 0.11118567 0.034686565
0.45515567 0.11173865 0.033164263
0.45564473 0.11122768 0.034427106
0.45647776 0.10852516 0.032759905
0.45743877 0.10855938 0.032437205
0.45755157 0.10943525 0.032418568
0.4566873 0.1092689 0.033635736
0.45753205 0.10993356 0.033152938
0.456541 0.11190161 0.034018159
0.45741349 0.1119678 0.034137368
0.45509589 0.11610557 0.03084898
0.45468569 0.11249983 0.034764767
0.45467842 0.11355359 0.034386557
0.45561299 0.11252683 0.034393787
0.4555667 0.11377433 0.033772588
0.45544696 0.11319709 0.034728527
0.45463464 0.11458042 0.03244406
0.45466241 0.11579545 0.03136009
0.45424646 0.11548851 0.031896234
0.45558509 0.11473614 0.032295465
0.45545298 0.115518 0.031356215
0.45421869 0.11427364 0.032979488
0.45668644 0.11253227 0.033665955
0.45653862 0.11380944 0.033466101
0.45649138 0.11324596 0.034526706
0.4575378 0.11344751 0.033573985
0.45666608 0.11471468 0.032522857
0.45653057 0.11557201 0.031200469
0.45783257 0.11511186 0.032500505
0.45735133 0.11446726 0.032937765
0.45970875 0.10156254 0.032791138
0.45880595 0.10061069 0.033755422
0.45824218 0.10060214 0.034080744
0.45866561 0.10156262 0.033563256
0.45809811 0.10155341 0.033883214
0.4596473 0.10062265 0.033261597
0.45919079 0.1015633 0.033182263
0.45872861 0.10363936 0.034810305
0.45955336 0.10239451 0.034848809
0.45948398 0.10368598 0.034762144
0.46070153 0.10062488 0.032505661
0.46102661 0.10151255 0.03127563
0.4604983 0.10156399 0.032222331
0.4612937 0.10058618 0.031651556
0.461321 0.1022256 0.031708717
0.46039015 0.10240559 0.034350157
0.46040595 0.10371396 0.034386456
0.4613761 0.10239428 0.033498108
0.46136352 0.10369706 0.033493817
0.46168256 0.10316071 0.034516931
0.4589895 0.10489321 0.034062982
0.45857587 0.105791 0.03347683
0.45970976 0.10453194 0.034338713
0.45988685 0.1056201 0.034226298
0.45875108 0.10800867 0.032614946
0.45963299 0.10807857 0.032749295
0.45830142 0.10671675 0.033091307
0.45899349 0.10740292 0.032957911
0.45930618 0.1068112 0.033402205
0.45979822 0.10625505 0.034105062
0.46062404 0.1041505 0.031861901
0.46096939 0.10487223 0.032368302
0.46062365 0.10472387 0.033384722
0.46053827 0.10434094 0.034015536
0.46069038 0.10567579 0.03424859
0.46153092 0.10563599 0.03318727
0.46123368 0.1056802 0.033895731
0.46050668 0.10661799 0.033993483
0.46053389 0.1075507 0.033474267
0.46138805 0.1066375 0.033560127
0.46149015 0.10758471 0.033149004
0.46214652 0.10314929 0.034049749
0.45970207 0.11148157 0.03060782
0.46040627 0.11151615 0.030485988
0.4584561 0.10860455 0.032196283
0.45849845 0.10986859 0.031701326
0.45840448 0.10924765 0.032128453
0.45951813 0.10870895 0.032590151
0.45959437 0.10992858 0.031574965
0.45953417 0.10931442 0.032050908
0.45871943 0.11051393 0.031457424
0.45831043 0.11053556 0.032006025
0.45874393 0.11117153 0.031499505
0.45937186 0.11053881 0.031260252
0.45934802 0.11151346 0.031235933
0.45963377 0.11199299 0.032790542
0.45826626 0.11062676 0.033079743
0.45840675 0.11075309 0.034418344
0.45896345 0.11131258 0.032954216
0.45848802 0.11174647 0.034544826
0.45926872 0.11187122 0.034156401
0.46061906 0.10844439 0.032469094
0.46058998 0.10976859 0.031492431
0.46041307 0.11058818 0.031055808
0.45977682 0.11247495 0.030726075
0.46036685 0.11248776 0.030439258
0.45855939 0.11268838 0.034089804
0.45848572 0.11360338 0.033425331
0.45971656 0.11275902 0.034053445
0.45938465 0.11367401 0.033584654
0.45874721 0.11583652 0.032688498
0.45841932 0.1145688 0.033339262
0.4589895 0.11522958 0.033031225
0.4595345 0.11463073 0.033242464
0.45989734 0.11562692 0.033207417
0.46045268 0.11270115 0.032841921
0.46072364 0.11320752 0.030962586
0.46063781 0.11328956 0.031978011
0.46108478 0.11392748 0.031492352
0.46114445 0.1140364 0.032717586
0.46022236 0.11275607 0.033646822
0.46036229 0.11371063 0.033290207
0.46096081 0.11455619 0.031319618
0.46098834 0.11465868 0.032498479
0.46090707 0.11552398 0.031252265
0.46074712 0.11573187 0.0325404
0.46050984 0.11466667 0.032944679
0.46053571 0.1153229 0.032989025
0.45029297 0.11758028 0.03249836
0.45094705 0.11676605 0.033990026
0.45123112 0.11737582 0.033268809
0.45068187 0.11858368 0.032495618
0.45060545 0.11955029 0.032394946
0.45162106 0.11865824 0.032704234
0.45148298 0.1196134 0.032515466
0.45390999 0.11682899 0.032561183
0.45226765 0.11691107 0.034743667
0.45218676 0.1181071 0.033507228
0.45295167 0.11759283 0.034595132
0.45337987 0.11617473 0.032930017
0.45388868 0.11668967 0.034794688
0.45377821 0.11764789 0.034645319
0.45230126 0.11868639 0.032543421
0.45253134 0.11978475 0.032504439
0.45357558 0.11942711 0.032673061
0.453547 0.11881635 0.033193111
0.45324767 0.11820416 0.033891916
0.45367026 0.12382777 0.030580282
0.45052361 0.12046944 0.031719863
0.45085722 0.12146233 0.031638026
0.45201981 0.12059541 0.032158136
0.45192713 0.12123208 0.032031298
0.45060301 0.12248968 0.032416821
0.45074236 0.1237289 0.031493902
0.45059505 0.12332865 0.032035351
0.45201403 0.12311453 0.031038523
0.45141792 0.12254056 0.032448173
0.45144895 0.12343399 0.031367302
0.4522661 0.12194473 0.032522321
0.45362535 0.12041491 0.032753348
0.45354813 0.12170601 0.032654613
0.45282426 0.12255749 0.031626046
