# .PCD v0.7 - Point Cloud Data file format
VERSION 0.7
FIELDS x y z label
SIZE 4 4 4 4
TYPE F F F U
COUNT 1 1 1 1
WIDTH 1266
HEIGHT 1
VIEWPOINT 0 0 0 1 0 0 0
POINTS 1266
DATA ascii
0.32624769 0.0014516711 0.054216027 3
0.32731533 0.0015958846 0.054438472 3
0.3263194 0.002513811 0.054292202 3
0.32633841 0.0035611689 0.054304123 3
0.32719523 0.0026044399 0.054280281 3
0.32714128 0.0036312938 0.054203033 3
0.3288908 0.00049349666 0.055298924 3
0.32894719 0.0015502274 0.05535686 3
0.32893848 0.0025885105 0.055335045 3
0.32883477 0.0036003441 0.055196941 3
0.3305648 -0.0099202693 0.054209828 3
0.33203751 -0.0087976754 0.056010604 3
0.33222777 -0.010985702 0.055181623 3
0.33277577 -0.0078897774 0.05690968 3
0.33367449 -0.0095220357 0.056948543 3
0.33374006 -0.0084623396 0.057018518 3
0.33376569 -0.0053013265 0.054847002 3
0.33364975 -0.0042937398 0.054693878 3
0.33129352 -0.0067715645 0.056159139 3
0.33039695 -0.0040948093 0.056113243 3
0.33201388 -0.0055238605 0.057031691 3
0.33373967 -0.0071542412 0.056462169 3
0.33390012 -0.0063667395 0.055385668 3
0.33342212 -0.0064734817 0.056606412 3
0.33298039 -0.0071369708 0.057153821 3
0.33289832 -0.0064670444 0.057045817 3
0.3336463 -0.0077959001 0.05689621 3
0.33275431 -0.0051214397 0.056854606 3
0.33267665 -0.0044502914 0.056751966 3
0.33350539 -0.0055660903 0.05561465 3
0.33323735 -0.0054862648 0.056368709 3
0.33331734 -0.0042325556 0.055369258 3
0.33312851 -0.0044772327 0.056224227 3
0.33283556 -0.0057916045 0.056961417 3
0.33215076 -0.0044444799 0.057188749 3
0.33599591 -0.0092941821 0.054380655 3
0.33558673 -0.0082926825 0.05440861 3
0.33655924 -0.0099034309 0.054539621 3
0.33791357 -0.011134148 0.054596543 3
0.33747074 -0.010490254 0.054585934 3
0.33653891 -0.0092951059 0.053964496 3
0.33629185 -0.0079788864 0.053645849 3
0.3365007 -0.0086122155 0.053910613 3
0.33715677 -0.0092741549 0.053641081 3
0.33750635 -0.0098659396 0.054079771 3
0.33753458 -0.0085496455 0.053558052 3
0.3356773 -0.011327664 0.056542795 3
0.33545142 -0.010442287 0.056436121 3
0.33449447 -0.011176586 0.056891084 3
0.33465666 -0.010435313 0.057083488 3
0.33537465 -0.011772215 0.056897521 3
0.33474049 -0.0093608992 0.056452591 3
0.33470163 -0.0081432955 0.055306435 3
0.3344273 -0.0085005909 0.056238472 3
0.33546865 -0.0095560178 0.055362254 3
0.33453178 -0.0097781122 0.056922913 3
0.33667555 -0.011355023 0.055603903 3
0.33644646 -0.011777937 0.056049228 3
0.33630541 -0.01051186 0.055319011 3
0.33750281 -0.01144132 0.055178702 3
0.33462071 -0.0072942078 0.054835796 3
0.3346726 -0.0063171461 0.054346681 3
0.33542088 -0.0072997808 0.054193854 3
0.3356241 -0.0064472952 0.053530216 3
0.33450186 -0.0053252876 0.054125905 3
0.33468637 -0.0043098927 0.053800225 3
0.33416191 -0.0043035746 0.054239511 3
0.33523375 -0.0053505301 0.053399324 3
0.33512977 -0.0043394268 0.053260922 3
0.33620524 -0.0073099434 0.053532243 3
0.33428359 -0.0072337687 0.055505514 3
0.33409834 -0.0078231096 0.056368589 3
0.33357096 -0.0032755733 0.05458653 3
0.33379632 -0.0022487566 0.054310977 3
0.3337436 -0.0012233853 0.054235756 3
0.33380085 -0.00051382184 0.054299355 3
0.33065331 -0.0033279657 0.056420088 3
0.33105785 -0.0025196671 0.056908488 3
0.33204189 -0.0034355372 0.057044268 3
0.33198756 -0.0024110973 0.056966782 3
0.33186638 -0.00036615133 0.056796312 3
0.33164972 -0.0013897419 0.057082266 3
0.33136809 -0.00035265088 0.057266712 3
0.33282787 -0.0038695633 0.055847645 3
0.33265603 -0.0033524632 0.056353807 3
0.3328456 -0.002555117 0.055313468 3
0.33239025 -0.0024518073 0.056378841 3
0.33313304 -0.0032446682 0.055131912 3
0.332827 -0.0013788739 0.055459339 3
0.33242995 -0.0014008284 0.05641669 3
0.33266842 -0.00044792891 0.05561614 3
0.33230489 -0.0003964901 0.05625248 3
0.33313024 -0.0018584132 0.055114508 3
0.33310145 -0.000479877 0.055065036 3
0.33285761 0.00083804131 0.054751039 3
0.33274835 0.0015006661 0.054609537 3
0.33389038 0.00082105398 0.053853273 3
0.33360758 0.00038183728 0.054232955 3
0.3337841 0.0014845431 0.053715467 3
0.3332504 0.001488179 0.05414319 3
0.33267397 0.0025196075 0.054507613 3
0.33295399 0.0036367476 0.054841518 3
0.33369219 0.0024986267 0.053591907 3
0.33318108 0.0025085658 0.054047346 3
0.33375651 0.0036319643 0.054203331 3
0.33185709 0.00073500472 0.056412101 3
0.33181357 0.0015449524 0.055627465 3
0.33158493 0.0016336739 0.056429148 3
0.33129707 0.00066667795 0.057168603 3
0.33120739 0.0016807914 0.057047606 3
0.3318398 0.0023973584 0.056734562 3
0.33133411 0.0027549118 0.057191908 3
0.33179194 0.0035886366 0.05702408 3
0.33268332 0.00042924285 0.055263918 3
0.33220768 0.00026917458 0.05612576 3
0.3322776 0.0015218854 0.055114508 3
0.33229452 0.0025661588 0.05512464 3
0.33210197 0.0026645958 0.055970907 3
0.33264226 0.0037018657 0.055541396 3
0.33238965 0.0037831962 0.056313276 3
0.33463299 -0.0032844245 0.053724289 3
0.33409214 -0.0032828152 0.05414319 3
0.33461541 -0.0022489876 0.053692341 3
0.33521551 -0.0032742023 0.053356647 3
0.335426 -0.00259839 0.053066611 3
0.33459294 -0.0012150407 0.053654432 3
0.33462316 -0.00051313639 0.05368495 3
0.33551404 -0.0015330687 0.053165287 3
0.33549082 -0.00049960613 0.053126693 3
0.33630812 -0.00050029159 0.052506208 3
0.33571681 0.00059121847 0.052489001 3
0.3356477 0.0017406791 0.051666498 3
0.3354826 0.0015009046 0.052553058 3
0.33448997 0.00048930943 0.053510547 3
0.33464879 0.0014970452 0.053153336 3
0.33508742 0.00050359964 0.053161681 3
0.33548623 0.0027356148 0.051456928 3
0.33538854 0.0025143474 0.052426994 3
0.33568579 0.0036365092 0.052784324 3
0.33453178 0.0026449859 0.053178627 3
0.33470452 0.0036675632 0.053744555 3
0.33506864 0.0022311211 0.053121805 3
0.33530027 0.0036812425 0.053394318 3
0.33615476 0.00014972687 0.05230999 3
0.33662277 0.0036691576 0.052312732 3
0.34931815 -0.04416424 0.057096601 3
0.34839129 -0.031440884 0.050356746 3
0.34809655 -0.030838877 0.049981713 3
0.3405481 -0.040044874 0.054863572 3
0.34144211 -0.040223133 0.054519851 3
0.33867127 -0.040034175 0.056354761 3
0.33963618 -0.040075228 0.055369437 3
0.33960113 -0.040606737 0.056422114 3
0.34060043 -0.040636554 0.055480182 3
0.34166205 -0.041076332 0.056257367 3
0.34076977 -0.041011781 0.057330251 3
0.34129685 -0.041017622 0.056894302 3
0.33975601 -0.038561642 0.05167675 3
0.33926284 -0.038544357 0.052158117 3
0.33868301 -0.038900167 0.054721713 3
0.33898216 -0.038458407 0.052902937 3
0.33876953 -0.038262442 0.054276943 3
0.33987173 -0.038957283 0.05346626 3
0.33925062 -0.038893163 0.054333687 3
0.33860299 -0.037532926 0.052423298 3
0.33857751 -0.036493421 0.052382231 3
0.33920819 -0.037863404 0.052084088 3
0.3382892 -0.037807196 0.053130031 3
0.34076858 -0.03910923 0.051847219 3
0.3403154 -0.03907904 0.052377939 3
0.34155577 -0.039031059 0.051732063 3
0.34052449 -0.039443493 0.054282367 3
0.34140447 -0.039512277 0.05319047 3
0.34025806 -0.037700921 0.052294254 3
0.3383022 -0.039195597 0.055343986 3
0.33940896 -0.039451301 0.055081666 3
0.34266931 -0.039975867 0.053676367 3
0.34248838 -0.040554389 0.054549932 3
0.34370649 -0.039904445 0.053327799 3
0.34376955 -0.040403038 0.054504991 3
0.34438276 -0.040380716 0.054175973 3
0.34556818 -0.04026027 0.054014266 3
0.34356964 -0.042719483 0.057553053 3
0.3432315 -0.041955471 0.058215976 3
0.34247756 -0.041076988 0.055633843 3
0.34340042 -0.041042507 0.055143714 3
0.34372628 -0.041454017 0.056645632 3
0.34273875 -0.041420817 0.05759871 3
0.34328365 -0.041420639 0.05718565 3
0.34546548 -0.041936576 0.056633592 3
0.34497327 -0.041919529 0.057111502 3
0.34500456 -0.042426139 0.058245659 3
0.34565622 -0.042390585 0.05796659 3
0.34424329 -0.040944904 0.05510056 3
0.34458801 -0.04143922 0.056081235 3
0.34500355 -0.040874273 0.054955125 3
0.34557962 -0.041381747 0.055678725 3
0.34584457 -0.040777087 0.054911017 3
0.34463793 -0.041850954 0.057784081 3
0.34411293 -0.041844696 0.058221102 3
0.34250531 -0.039509282 0.052372992 3
0.34377724 -0.039361715 0.05231607 3
0.34465528 -0.039253384 0.052316666 3
0.34443045 -0.038629174 0.052030325 3
0.34558159 -0.039129138 0.052378416 3
0.34560567 -0.038424283 0.052402854 3
0.34451056 -0.039819956 0.053236246 3
0.34565818 -0.039712206 0.053027093 3
0.34565896 -0.037361816 0.052460909 3
0.33828729 -0.034316987 0.053095341 3
0.33915925 -0.035259888 0.053093851 3
0.33937627 -0.034144044 0.053353429 3
0.33819699 -0.033647865 0.052976966 3
0.339077 -0.033541799 0.052976012 3
0.33931446 -0.032768875 0.053264022 3
0.34057772 -0.032541245 0.053739786 3
0.33866405 -0.02844879 0.054600477 3
0.33944374 -0.029071897 0.054482818 3
0.33938479 -0.028394103 0.054403424 3
0.34059 -0.02940459 0.054454882 3
0.340271 -0.02828756 0.054412007 3
0.34137574 -0.029241651 0.054156959 3
0.34178361 -0.028330455 0.054474473 3
0.33828437 -0.031010687 0.056334138 3
0.33969608 -0.030127749 0.056441188 3
0.33848742 -0.030164957 0.057121754 3
0.33997667 -0.030649126 0.057338476 3
0.33865246 -0.029266924 0.05532074 3
0.33968937 -0.029605404 0.055338144 3
0.34072602 -0.031452268 0.056097031 3
0.34052169 -0.03012526 0.055831075 3
0.34148374 -0.030079737 0.055390298 3
0.34085011 -0.030545473 0.05733192 3
0.34146023 -0.03052476 0.05700016 3
0.34577298 -0.034016103 0.053671241 3
0.34589344 -0.033281833 0.053815722 3
0.34240705 -0.03213352 0.054920316 3
0.34340876 -0.029988199 0.054511547 3
0.34240204 -0.029524058 0.053798914 3
0.34284443 -0.028341591 0.054339767 3
0.34348977 -0.029353142 0.054060817 3
0.34363213 -0.028265357 0.054228961 3
0.34490585 -0.029945493 0.053647399 3
0.34429097 -0.029967666 0.05397284 3
0.34575051 -0.030373216 0.054706335 3
0.34431106 -0.02926597 0.053992033 3
0.34448558 -0.028515905 0.05420351 3
0.34586206 -0.029467881 0.053745091 3
0.34511685 -0.029183656 0.053904653 3
0.34559971 -0.028422356 0.053955138 3
0.34214854 -0.031174481 0.056771874 3
0.34242159 -0.030041814 0.054919958 3
0.34237793 -0.030492961 0.056505799 3
0.34391731 -0.031826735 0.055707335 3
0.3439067 -0.030439973 0.055681825 3
0.34323633 -0.030479789 0.055938244 3
0.34335309 -0.030965447 0.057177901 3
0.34453279 -0.030414104 0.055370688 3
0.34512651 -0.030398458 0.055019498 3
0.34562236 -0.030763358 0.056732774 3
0.34468094 -0.030803233 0.057195008 3
0.34577966 -0.031407624 0.056934595 3
0.34653693 -0.040210634 0.053583026 3
0.34642994 -0.040763676 0.054548621 3
0.34747458 -0.040171042 0.05311358 3
0.34742084 -0.040706426 0.054146111 3
0.34841287 -0.040131181 0.052645445 3
0.34949127 -0.040045246 0.052353442 3
0.3490603 -0.041131675 0.054561377 3
0.3485758 -0.040684626 0.053402483 3
0.34977734 -0.041074604 0.054365158 3
0.34964931 -0.040600032 0.053104639 3
0.34766975 -0.042354047 0.056658685 3
0.34677255 -0.042897075 0.058272004 3
0.34647068 -0.042390928 0.057345629 3
0.34805411 -0.042832583 0.057689071 3
0.34749436 -0.042838067 0.058081388 3
0.34641218 -0.041287035 0.055624485 3
0.3466202 -0.041825086 0.056435406 3
0.34753194 -0.041187152 0.055383563 3
0.3477698 -0.041715056 0.056231976 3
0.34875512 -0.042264789 0.056376219 3
0.34968996 -0.042482942 0.056455433 3
0.34859949 -0.042831898 0.057278872 3
0.34973693 -0.043239847 0.058159053 3
0.34918058 -0.042819351 0.056913257 3
0.34849906 -0.041137397 0.054952621 3
0.34853786 -0.041641086 0.056099176 3
0.3498975 -0.041551113 0.055614352 3
0.34925705 -0.041583151 0.055905819 3
0.34656098 -0.039335832 0.052510202 3
0.34674221 -0.038320452 0.052180946 3
0.34754938 -0.039279945 0.052103788 3
0.3477217 -0.038267612 0.051763415 3
0.3463999 -0.037298232 0.052291989 3
0.34755591 -0.037536427 0.052098334 3
0.34757861 -0.036571246 0.052301843 3
0.34663659 -0.036088794 0.053126693 3
0.34871083 -0.039515585 0.051917434 3
0.34853494 -0.038180083 0.051686406 3
0.34881145 -0.038786203 0.052038312 3
0.34953099 -0.039425224 0.051849842 3
0.3495031 -0.038041949 0.051804304 3
0.34963334 -0.038695514 0.051973104 3
0.3487609 -0.0374102 0.051964283 3
0.34858379 -0.036248744 0.052098673 3
0.34962416 -0.037306488 0.051950932 3
0.34968883 -0.036589593 0.052026868 3
0.3507061 -0.03991434 0.052233696 3
0.35148457 -0.04044348 0.052668691 3
0.35052076 -0.041098401 0.053655148 3
0.35037678 -0.040539652 0.052921534 3
0.35155016 -0.041027814 0.053304195 3
0.35185444 -0.04144305 0.054786205 3
0.35290575 -0.040939152 0.052816033 3
0.35249233 -0.04038015 0.052290797 3
0.35364231 -0.040471584 0.052277565 3
0.35249346 -0.041243345 0.053396285 3
0.35231829 -0.041469276 0.054273963 3
0.35373974 -0.041448236 0.053322434 3
0.35096109 -0.042074233 0.055858612 3
0.35055721 -0.042551447 0.05608495 3
0.35166413 -0.043230683 0.056749821 3
0.35180646 -0.042321518 0.055827618 3
0.35053194 -0.04324621 0.057516336 3
0.35056788 -0.041509181 0.055360675 3
0.3512274 -0.041470736 0.055093646 3
0.35257185 -0.043199509 0.056248724 3
0.35253167 -0.041913688 0.055641294 3
0.3528108 -0.042515665 0.055996656 3
0.35350388 -0.04316017 0.055778503 3
0.35341367 -0.04209267 0.05529185 3
0.35289407 -0.043515533 0.058295846 3
0.35365611 -0.04353255 0.057613909 3
0.35059935 -0.039253443 0.05209446 3
0.35043943 -0.038609862 0.051888585 3
0.35139477 -0.039518878 0.051999807 3
0.35125977 -0.038519502 0.051822424 3
0.35063511 -0.037502259 0.052126527 3
0.35083705 -0.036393285 0.052372456 3
0.35145852 -0.037411094 0.052064836 3
0.35169196 -0.036292166 0.05235076 3
0.35255808 -0.039752454 0.051820219 3
0.35223055 -0.039075136 0.051951528 3
0.3521331 -0.038411617 0.051823974 3
0.35384572 -0.038901746 0.051790953 3
0.35357505 -0.039248914 0.052000999 3
0.35355467 -0.03821294 0.051968098 3
0.35304219 -0.037596703 0.051866293 3
0.35233703 -0.037301883 0.052073061 3
0.35243112 -0.036228597 0.052183986 3
0.35391539 -0.037488848 0.051869154 3
0.3534483 -0.036364991 0.05200414 3
0.35175788 -0.043532878 0.059054613 3
0.34684068 -0.035414785 0.052829146 3
0.34682053 -0.034029484 0.052792788 3
0.34768724 -0.035405248 0.052246273 3
0.34758916 -0.034479707 0.052298825 3
0.34636241 -0.035393387 0.053325415 3
0.34652463 -0.034471739 0.053156018 3
0.34658587 -0.033234507 0.053587437 3
0.34882385 -0.035301954 0.052027225 3
0.34875584 -0.034628153 0.051936746 3
0.34986696 -0.035488501 0.052242577 3
0.34978342 -0.034472317 0.052129865 3
0.34868056 -0.033781677 0.052932024 3
0.34690696 -0.032089174 0.056165576 3
0.3486805 -0.032737821 0.05511272 3
0.34656173 -0.030374855 0.054081023 3
0.34757188 -0.030399725 0.053157806 3
0.34670636 -0.029373065 0.053707004 3
0.34684813 -0.028286338 0.053875685 3
0.34739247 -0.029328167 0.053471684 3
0.34747279 -0.028260976 0.053563714 3
0.34861171 -0.031023502 0.05282414 3
0.34864056 -0.030492574 0.051760316 3
0.34826374 -0.030439317 0.052382827 3
0.34855598 -0.030868024 0.053847909 3
0.34812272 -0.030832797 0.054398656 3
0.34894657 -0.029873163 0.051043153 3
0.34939933 -0.029556781 0.052706242 3
0.34939757 -0.028515786 0.052696109 3
0.34843731 -0.02934281 0.053322315 3
0.34853593 -0.028443089 0.053074043 3
0.34644854 -0.03076002 0.056127548 3
0.34748608 -0.03077589 0.055240631 3
0.34691375 -0.03121978 0.057257771 3
0.34753215 -0.031195849 0.056939244 3
0.34842622 -0.031517446 0.056423157 3
0.34939849 -0.031207055 0.055453598 3
0.34966314 -0.03172943 0.056335688 3
0.35076413 -0.035374135 0.052273214 3
0.35077935 -0.034326464 0.052284598 3
0.35169148 -0.035249844 0.052342474 3
0.35179931 -0.034172714 0.052470565 3
0.3502239 -0.033460289 0.053771973 3
0.35259587 -0.035480231 0.052386284 3
0.35244289 -0.034487769 0.05218637 3
0.35340947 -0.035392463 0.052314162 3
0.35357672 -0.034384623 0.051969379 3
0.35384351 -0.032906815 0.05448854 3
0.3500849 -0.032461852 0.055777669 3
0.35105449 -0.032325059 0.055900216 3
0.35195369 -0.032210648 0.055935264 3
0.35258549 -0.032962441 0.055094719 3
0.35302716 -0.032040179 0.056190014 3
0.3540144 -0.031897187 0.056337595 3
0.35010219 -0.031242549 0.05469656 3
0.35018766 -0.028437898 0.052592814 3
0.35091895 -0.0316751 0.055724859 3
0.35034359 -0.031685501 0.056095958 3
0.35144591 -0.031680167 0.055293322 3
0.36866421 -0.0399957 0.050836563 3
0.36935395 -0.039945662 0.050617695 3
0.35598111 -0.042363346 0.054511666 3
0.354662 -0.041412562 0.05283916 3
0.35463589 -0.040468574 0.052250385 3
0.35541415 -0.041343212 0.052690506 3
0.35552877 -0.04009527 0.051727891 3
0.35554588 -0.040694684 0.052303255 3
0.35458067 -0.041864082 0.05438602 3
0.35569933 -0.041853026 0.05360359 3
0.3565979 -0.042942271 0.054746389 3
0.35667443 -0.042313069 0.054290056 3
0.35798836 -0.042930543 0.053760767 3
0.35765785 -0.043206722 0.054442286 3
0.35776609 -0.042310655 0.05347538 3
0.35725915 -0.042298883 0.053931832 3
0.35624444 -0.041247815 0.052641034 3
0.35637581 -0.039994746 0.051699638 3
0.35663599 -0.04060331 0.052033067 3
0.35753724 -0.041088715 0.05262816 3
0.35746682 -0.040507823 0.051985264 3
0.35666203 -0.041803539 0.053173065 3
0.35740054 -0.041738272 0.053008676 3
0.35448512 -0.043104365 0.055370629 3
0.35499251 -0.043538779 0.056560636 3
0.35447156 -0.042414472 0.055348575 3
0.35555333 -0.043019474 0.055072904 3
0.3555516 -0.043533117 0.056170106 3
0.35545909 -0.04235661 0.054949284 3
0.35446405 -0.043534249 0.05698967 3
0.35637397 -0.043529972 0.055563986 3
0.35725343 -0.043507725 0.055030227 3
0.35763204 -0.043711513 0.057700634 3
0.3570953 -0.043710053 0.058117509 3
0.35480803 -0.039458901 0.051911592 3
0.35461253 -0.038828284 0.05166018 3
0.35491055 -0.038035542 0.052031517 3
0.35560471 -0.039375335 0.051819324 3
0.35545975 -0.038728297 0.051631451 3
0.35566258 -0.037966937 0.051883101 3
0.35481054 -0.037373662 0.051900625 3
0.35469389 -0.036426555 0.052113056 3
0.35571516 -0.037255228 0.051944852 3
0.3557502 -0.036549479 0.051984549 3
0.35636312 -0.039304286 0.051679015 3
0.3563728 -0.038259268 0.051684499 3
0.35720176 -0.039206624 0.051640987 3
0.35742956 -0.039825737 0.051933765 3
0.35738432 -0.038452089 0.051867723 3
0.3565973 -0.037144095 0.051961541 3
0.3565197 -0.03647536 0.051858902 3
0.35731596 -0.037780464 0.051776648 3
0.35760128 -0.036992818 0.052133203 3
0.3575303 -0.036322266 0.052039027 3
0.35889328 -0.04229641 0.052705526 3
0.35952437 -0.042266697 0.05240643 3
0.35865927 -0.043399811 0.054613471 3
0.35851917 -0.04258725 0.053332448 3
0.35961115 -0.043262273 0.054720759 3
0.35967451 -0.042819738 0.053150415 3
0.35885289 -0.041268736 0.052647889 3
0.35825425 -0.040426582 0.051883221 3
0.35964209 -0.041186422 0.052549243 3
0.35923237 -0.040281922 0.052023411 3
0.35822803 -0.041643322 0.052957296 3
0.36077219 -0.04221195 0.051790476 3
0.36011755 -0.04224962 0.052059412 3
0.36152798 -0.042140365 0.051650643 3
0.36077583 -0.04272303 0.052898765 3
0.36164653 -0.042612702 0.052905083 3
0.36045337 -0.041443527 0.052481294 3
0.36025926 -0.040467709 0.052228749 3
0.36128241 -0.041347682 0.052434325 3
0.36128581 -0.040306404 0.052432656 3
0.35864449 -0.043734938 0.056789994 3
0.3595041 -0.043718889 0.056233585 3
0.35811645 -0.043730557 0.057217836 3
0.3607862 -0.043049663 0.055111647 3
0.36153394 -0.042980313 0.054962397 3
0.36191666 -0.043362468 0.056547761 3
0.35810518 -0.039087474 0.051685691 3
0.35832274 -0.039709657 0.051965594 3
0.35840535 -0.038294435 0.052061558 3
0.35943785 -0.039348494 0.051912069 3
0.35919702 -0.03821215 0.051965952 3
0.35831463 -0.037630469 0.051942229 3
0.35849646 -0.036530331 0.052166045 3
0.35936058 -0.037464768 0.052168965 3
0.35957202 -0.036530215 0.052065253 3
0.36092877 -0.039385021 0.051972985 3
0.36041903 -0.038278539 0.052052062 3
0.36155301 -0.038574681 0.052212358 3
0.36030543 -0.037332147 0.052268624 3
0.36072209 -0.036158871 0.052057981 3
0.3616555 -0.037415713 0.052152634 3
0.36184496 -0.036489159 0.052021503 3
0.35465547 -0.035252348 0.052239597 3
0.35503322 -0.034523726 0.052162766 3
0.35584232 -0.035478249 0.052093863 3
0.35593861 -0.034406066 0.052208662 3
0.35488427 -0.033877969 0.051970124 3
0.35566795 -0.033800036 0.051862121 3
0.35560742 -0.033038095 0.052329659 3
0.35471267 -0.032976508 0.053393364 3
0.35668933 -0.035379067 0.052066565 3
0.35677493 -0.034310728 0.052168012 3
0.35763916 -0.035246328 0.052170038 3
0.35761678 -0.034213483 0.05213511 3
0.35646746 -0.033370078 0.051772475 3
0.35731193 -0.033272311 0.051742673 3
0.35580331 -0.029249251 0.054196596 3
0.35599315 -0.028496593 0.054431081 3
0.35651344 -0.029195637 0.053997636 3
0.35672456 -0.028436244 0.054259419 3
0.35785764 -0.029112428 0.053505063 3
0.35730135 -0.029117078 0.053897381 3
0.35745859 -0.02837503 0.054091454 3
0.35472679 -0.031842411 0.0561409 3
0.35568312 -0.031796247 0.05570513 3
0.3557263 -0.028409034 0.055188537 3
0.35699403 -0.031635761 0.055716872 3
0.35769266 -0.031585157 0.05550456 3
0.35845053 -0.035505205 0.052101374 3
0.35843322 -0.034470931 0.052072942 3
0.35990721 -0.035383493 0.05175066 3
0.35917598 -0.035445362 0.051922083 3
0.35952091 -0.034236629 0.051986296 3
0.35830122 -0.033474118 0.051899195 3
0.35850123 -0.032804027 0.051599145 3
0.35928553 -0.03333059 0.052048206 3
0.35998291 -0.032587498 0.051830053 3
0.35937762 -0.031915456 0.052156448 3
0.36088157 -0.035242021 0.051888585 3
0.36059609 -0.034554064 0.052071452 3
0.36178067 -0.035471335 0.051933825 3
0.36179954 -0.034426421 0.051951766 3
0.3606306 -0.033157736 0.052107096 3
0.36085188 -0.032481432 0.051834583 3
0.36152303 -0.033389851 0.052144051 3
0.35898811 -0.031866223 0.052760482 3
0.35899073 -0.031690449 0.053860307 3
0.3589682 -0.029103845 0.052717924 3
0.35960132 -0.029074609 0.052423 3
0.35824156 -0.029162943 0.052894592 3
0.35874891 -0.028136253 0.054627419 3
0.35913312 -0.029742956 0.05293119 3
0.35962301 -0.028030068 0.054638267 3
0.36074102 -0.031825006 0.051689625 3
0.36006695 -0.031867772 0.051932573 3
0.36168629 -0.031694382 0.051791787 3
0.36156523 -0.030866683 0.052732348 3
0.361817 -0.03061083 0.054148912 3
0.36092931 -0.029340357 0.054110765 3
0.36104935 -0.028784245 0.053162336 3
0.36062574 -0.027969062 0.05426538 3
0.36132038 -0.028006434 0.053502083 3
0.35873982 -0.031509355 0.055185795 3
0.35927153 -0.030733794 0.055306196 3
0.36055422 -0.030236587 0.055284977 3
0.36143357 -0.030385822 0.055853367 3
0.36195379 -0.029701918 0.055413842 3
0.36250341 -0.041995138 0.051790595 3
0.36247849 -0.042515248 0.052862883 3
0.36318439 -0.042789191 0.054862261 3
0.36226946 -0.04119885 0.052589178 3
0.36354294 -0.041305792 0.052377541 3
0.3625508 -0.040411949 0.052942872 3
0.36335909 -0.0403229 0.052871466 3
0.36466289 -0.042145073 0.053443432 3
0.36572969 -0.041968197 0.053703427 3
0.364546 -0.041326925 0.052188933 3
0.36454323 -0.04019852 0.052729964 3
0.36576623 -0.040934294 0.051541686 3
0.36537564 -0.041576445 0.052147985 3
0.36556557 -0.040474236 0.052384853 3
0.36232764 -0.042895406 0.054872036 3
0.36267775 -0.043288201 0.056416631 3
0.36337841 -0.043234259 0.056209445 3
0.36429405 -0.043107808 0.056275725 3
0.3641932 -0.042631716 0.055046678 3
0.36551219 -0.042879194 0.05672729 3
0.36218649 -0.039493904 0.052473664 3
0.36278349 -0.038436204 0.052127361 3
0.363502 -0.039326482 0.052497894 3
0.36351562 -0.038372964 0.051959515 3
0.36278355 -0.037397146 0.052121699 3
0.36278063 -0.036359429 0.052111983 3
0.36338574 -0.037030846 0.051786423 3
0.36360598 -0.037650526 0.052070737 3
0.36354971 -0.036284417 0.051991463 3
0.36464843 -0.039215043 0.052308261 3
0.36426574 -0.038303673 0.051814795 3
0.36589646 -0.039325505 0.052801609 3
0.36529133 -0.03848891 0.052024007 3
0.36422324 -0.036933035 0.051753163 3
0.36432981 -0.037590086 0.051892757 3
0.36432827 -0.036206216 0.05188334 3
0.36552271 -0.03746374 0.051763594 3
0.36524031 -0.036429822 0.051948071 3
0.36655754 -0.040850371 0.051450968 3
0.36677226 -0.03999573 0.052272677 3
0.36759734 -0.040336952 0.051677048 3
0.36691713 -0.04175052 0.054118514 3
0.36848599 -0.041076243 0.052819133 3
0.36823937 -0.040302873 0.051396728 3
0.37005264 -0.040730804 0.053723931 3
0.36644942 -0.042235881 0.055722594 3
0.36735535 -0.042112499 0.055779338 3
0.36661589 -0.042688966 0.05703485 3
0.36761856 -0.042532533 0.057215333 3
0.36823589 -0.041997522 0.055804729 3
0.36878645 -0.042320192 0.057607412 3
0.36979097 -0.042162776 0.057792544 3
0.36662805 -0.039261788 0.052635193 3
0.36621884 -0.038360387 0.052107275 3
0.36771366 -0.039169982 0.052371562 3
0.36711249 -0.038242936 0.052148223 3
0.3668896 -0.037279546 0.051858068 3
0.36686575 -0.035904408 0.051820636 3
0.36642647 -0.036391396 0.051995676 3
0.36782664 -0.037493676 0.051957011 3
0.36776 -0.036478788 0.051866531 3
0.36871225 -0.039107084 0.051997423 3
0.36860564 -0.038361222 0.052408397 3
0.36951119 -0.039110884 0.051367879 3
0.3696239 -0.038291752 0.052060485 3
0.36873549 -0.037371218 0.052019 3
0.36853963 -0.036399513 0.051763177 3
0.36941648 -0.037669837 0.05179131 3
0.36948097 -0.036957443 0.051870823 3
0.36925375 -0.036341876 0.051576376 3
0.36271706 -0.035341844 0.052025259 3
0.36269045 -0.034312189 0.051985621 3
0.36336249 -0.03565374 0.05174911 3
0.36375523 -0.034486949 0.052243471 3
0.36253059 -0.033583954 0.05232805 3
0.36266074 -0.032417912 0.052303713 3
0.36385244 -0.033417553 0.052361608 3
0.36386442 -0.032376394 0.052371144 3
0.36443812 -0.035478055 0.052019596 3
0.3646487 -0.034371465 0.052282453 3
0.36543751 -0.035327286 0.052194118 3
0.36545625 -0.034284025 0.052212656 3
0.36461073 -0.033346564 0.052228451 3
0.36469954 -0.032280609 0.052336156 3
0.36554039 -0.033219546 0.052314639 3
0.3656463 -0.032493949 0.052446008 3
0.36272269 -0.031534076 0.052011013 3
0.36242825 -0.030850172 0.052181959 3
0.36380124 -0.031359941 0.052285075 3
0.3635163 -0.030415222 0.051916242 3
0.36216974 -0.027907819 0.053483844 3
0.36277616 -0.028404206 0.054257989 3
0.36356658 -0.029878855 0.053076982 3
0.36466241 -0.03125608 0.052283168 3
0.3642785 -0.030343741 0.051788092 3
0.36548194 -0.031511053 0.052230835 3
0.36537907 -0.030336162 0.051726263 3
0.36560449 -0.029400477 0.051642615 3
0.3652755 -0.028986007 0.053053617 3
0.36217105 -0.030322284 0.055693507 3
0.36252403 -0.029001951 0.055037856 3
0.36314023 -0.029493958 0.055823922 3
0.36390251 -0.028732687 0.055692673 3
0.36439908 -0.02943635 0.055232525 3
0.36423188 -0.029316306 0.05611515 3
0.36453623 -0.028012961 0.055398941 3
0.36499083 -0.028556377 0.055980802 3
0.36667752 -0.035186037 0.052127063 3
0.36620271 -0.034562081 0.052067161 3
0.36774591 -0.035446674 0.051843464 3
0.36717874 -0.034418941 0.052213907 3
0.36642182 -0.033453599 0.05234164 3
0.36633521 -0.03244555 0.05222559 3
0.36763012 -0.033323318 0.052235663 3
0.36776936 -0.032330185 0.051858306 3
0.3671338 -0.032361299 0.052145958 3
0.36851263 -0.035026461 0.051721931 3
0.3687318 -0.035644948 0.052006006 3
0.3683978 -0.034284562 0.052122295 3
0.3694368 -0.035245106 0.051806211 3
0.36963165 -0.034145057 0.052051187 3
0.368846 -0.03353548 0.052142262 3
0.36892128 -0.032820463 0.052235484 3
0.36944366 -0.031959593 0.052901268 3
0.36689311 -0.031058401 0.051831365 3
0.36629349 -0.031422943 0.052166998 3
0.36702007 -0.030326694 0.051990271 3
0.3677133 -0.031369139 0.052148979 3
0.3668924 -0.029677659 0.051823497 3
0.36778444 -0.028699517 0.052960396 3
0.3686952 -0.029958665 0.053032756 3
0.37005097 -0.028830439 0.054764152 3
0.36618453 -0.028519511 0.055308819 3
0.36624396 -0.028326809 0.056479812 3
0.33896023 -0.027134031 0.053864598 3
0.33854344 -0.027441904 0.054441333 3
0.33841014 -0.026608586 0.053176641 3
0.3396287 -0.027095854 0.053602934 3
0.33945304 -0.027676672 0.054481506 3
0.33936357 -0.026482075 0.053267837 3
0.33812571 -0.025830954 0.05390811 3
0.3397063 -0.02551049 0.054776073 3
0.34035259 -0.027040422 0.053410172 3
0.34053159 -0.027595431 0.05418402 3
0.34030521 -0.026359051 0.053345323 3
0.34149367 -0.026939824 0.053190947 3
0.34160936 -0.027514338 0.053886414 3
0.34149069 -0.026160091 0.053726554 3
0.33882508 -0.024318591 0.056395411 3
0.34029037 -0.024466127 0.056580782 3
0.34144664 -0.025140107 0.055844545 3
0.34124386 -0.024339795 0.056674361 3
0.3382445 -0.023177743 0.052939415 3
0.3383382 -0.022285789 0.054138541 3
0.33936113 -0.023002625 0.053233147 3
0.33927464 -0.023557127 0.054221988 3
0.33953747 -0.022169292 0.053990364 3
0.3386279 -0.021149209 0.053760488 3
0.33820802 -0.021629989 0.053970814 3
0.33878666 -0.020229071 0.053585291 3
0.33963376 -0.021527946 0.053558469 3
0.33983868 -0.020770162 0.053806305 3
0.3415094 -0.023541063 0.052634239 3
0.34025741 -0.022894949 0.053254724 3
0.34080577 -0.022031426 0.053928971 3
0.3413831 -0.022716701 0.053562045 3
0.3417334 -0.021914214 0.05399096 3
0.34093344 -0.021297455 0.054081202 3
0.33882475 -0.023443818 0.055297792 3
0.33815604 -0.023397893 0.056102037 3
0.33947504 -0.023854822 0.056652427 3
0.3405934 -0.02384606 0.055862188 3
0.34018159 -0.023805052 0.056439757 3
0.34232318 -0.027461648 0.053682566 3
0.34290385 -0.026755065 0.053307533 3
0.34249556 -0.02601707 0.053884745 3
0.3434864 -0.027353585 0.053493023 3
0.34387928 -0.026620716 0.053430557 3
0.34251654 -0.023925364 0.053892612 3
0.3447561 -0.027559415 0.053440154 3
0.34429961 -0.027879328 0.053965926 3
0.34480578 -0.026501477 0.0534935 3
0.34550589 -0.027495116 0.053283274 3
0.34263492 -0.024421573 0.056588888 3
0.3435955 -0.024117529 0.056328893 3
0.34439451 -0.025595456 0.055156708 3
0.34431803 -0.024062246 0.056138754 3
0.34605104 -0.025248945 0.056130052 3
0.3441568 -0.024637192 0.057032466 3
0.34564406 -0.024428651 0.057249963 3
0.34247446 -0.023411661 0.052743077 3
0.34233838 -0.022590607 0.053658962 3
0.3436836 -0.02320677 0.05315721 3
0.34383601 -0.022297472 0.054431796 3
0.34451544 -0.023812771 0.053108096 3
0.34502858 -0.020017475 0.054809093 3
0.34573841 -0.020313367 0.054606855 3
0.34252799 -0.02011627 0.056054115 3
0.34398735 -0.021389842 0.055703282 3
0.34322667 -0.020762682 0.055840015 3
0.34352612 -0.019977778 0.056205869 3
0.34496057 -0.021258146 0.055825472 3
0.34453392 -0.020177951 0.055647414 3
0.34447747 -0.020546377 0.05630672 3
0.34562486 -0.021221161 0.055563688 3
0.34538221 -0.020602465 0.055255532 3
0.33807242 -0.019584775 0.053783536 3
0.3416445 -0.016304508 0.054375947 3
0.33858413 -0.017875403 0.055491447 3
0.3395589 -0.016887963 0.056690335 3
0.3396526 -0.016166359 0.056799531 3
0.33904803 -0.016184241 0.057137728 3
0.34057572 -0.018561721 0.056335747 3
0.34166861 -0.019518584 0.056069136 3
0.3416048 -0.018326947 0.056341846 3
0.34076136 -0.017465368 0.056555986 3
0.3406986 -0.01626122 0.055378497 3
0.34035811 -0.016634911 0.056229036 3
0.34165168 -0.01691401 0.054935217 3
0.34159243 -0.017461091 0.055955768 3
0.34122086 -0.016879648 0.055488706 3
0.339728 -0.015082836 0.054706693 3
0.33980191 -0.014366925 0.054791927 3
0.3385233 -0.012422353 0.054820418 3
0.34056589 -0.015280922 0.054296892 3
0.34063065 -0.014445037 0.053643107 3
0.34007561 -0.014447927 0.054043293 3
0.34153968 -0.015030205 0.053689003 3
0.34153679 -0.015643135 0.054236054 3
0.3413375 -0.014396816 0.05343163 3
0.34052253 -0.013783336 0.053502679 3
0.34052911 -0.013353407 0.054052114 3
0.3414979 -0.01347816 0.053259652 3
0.34189385 -0.012150824 0.054104328 3
0.33858883 -0.014934599 0.056557178 3
0.3383643 -0.014307946 0.056272984 3
0.33955142 -0.015319481 0.055578589 3
0.33922598 -0.015253857 0.056262314 3
0.33956605 -0.014274716 0.055586934 3
0.33908677 -0.014255136 0.056080222 3
0.33850455 -0.015571922 0.057002187 3
0.33862892 -0.013350815 0.055504262 3
0.3398695 -0.013491035 0.055956125 3
0.33964556 -0.012864292 0.055672526 3
0.34017956 -0.01564151 0.055272698 3
0.34008819 -0.013588071 0.055140257 3
0.34075582 -0.012777418 0.055417717 3
0.34072739 -0.012012184 0.05591929 3
0.34195083 -0.011972457 0.055263162 3
0.34355018 -0.018138841 0.05458492 3
0.34218407 -0.016917765 0.054507852 3
0.34283277 -0.016539618 0.054222047 3
0.34356058 -0.017442256 0.054591835 3
0.34350333 -0.01650171 0.05396682 3
0.34474695 -0.019410104 0.054452419 3
0.34500599 -0.018110126 0.053673267 3
0.34442243 -0.018529126 0.054403543 3
0.34531081 -0.019404143 0.054064989 3
0.34580645 -0.018378913 0.05358392 3
0.3453027 -0.018713266 0.054049134 3
0.34499717 -0.017419457 0.053656459 3
0.34437239 -0.017443776 0.053968072 3
0.34448808 -0.016451091 0.05355835 3
0.34565586 -0.017384797 0.053387403 3
0.34565261 -0.016346067 0.053374767 3
0.34274447 -0.019356936 0.056316495 3
0.34269822 -0.018325588 0.055523794 3
0.34257948 -0.018713742 0.056105614 3
0.34391683 -0.019331366 0.055597305 3
0.34327948 -0.019359708 0.055893421 3
0.34356606 -0.018744797 0.055155277 3
0.34235057 -0.017478809 0.055265188 3
0.34435219 -0.019364536 0.055050254 3
0.34238532 -0.015286937 0.053653598 3
0.34220487 -0.014300555 0.053420067 3
0.34358227 -0.015519783 0.053511262 3
0.34356529 -0.014484823 0.053481311 3
0.3421458 -0.012931138 0.053334475 3
0.34269869 -0.012501106 0.053474486 3
0.34322703 -0.013464689 0.053596139 3
0.34367552 -0.0122842 0.053418238 3
0.34471536 -0.015424728 0.053287625 3
0.34489685 -0.014330655 0.053505242 3
0.34568173 -0.015297771 0.053402543 3
0.34573036 -0.014590323 0.053457499 3
0.34457538 -0.013306126 0.053640902 3
0.34497309 -0.012229726 0.053582907 3
0.34592056 -0.013494432 0.05368638 3
0.34649116 -0.027356818 0.05342114 3
0.34750715 -0.027641371 0.05305469 3
0.34754735 -0.023904085 0.054715037 3
0.34815776 -0.026657373 0.054409027 3
0.34919637 -0.027366489 0.05352962 3
0.34858793 -0.023918629 0.053833127 3
0.34811354 -0.023897082 0.054331541 3
0.34715575 -0.025936991 0.055333853 3
0.34666881 -0.023923606 0.055254042 3
0.34748149 -0.024279714 0.056818008 3
0.34680891 -0.024319947 0.057068229 3
0.34804153 -0.024797827 0.057522178 3
0.34833542 -0.02426751 0.056249976 3
0.34937397 -0.024282366 0.055367768 3
0.35003442 -0.024684042 0.056744337 3
0.34888536 -0.02470395 0.057486653 3
0.34961867 -0.025336534 0.057319403 3
0.34950233 -0.024680763 0.057168484 3
0.34657001 -0.023345113 0.054579854 3
0.34653497 -0.021275789 0.054518938 3
0.34621298 -0.020334706 0.0541085 3
0.34728831 -0.021211296 0.054368973 3
0.34629935 -0.022567242 0.0553267 3
0.34778798 -0.022275269 0.056094289 3
0.3461473 -0.021227747 0.055125475 3
0.34654626 -0.021714255 0.056173265 3
0.34765592 -0.021707267 0.055378914 3
0.34773779 -0.020380318 0.054924726 3
0.34830421 -0.022976249 0.055654883 3
0.34856677 -0.022202432 0.055977345 3
0.34923971 -0.022854596 0.055734038 3
0.34966087 -0.022031963 0.056255102 3
0.34977216 -0.02130571 0.056388617 3
0.35022408 -0.024271339 0.054795265 3
0.35295784 -0.024788111 0.05386138 3
0.35247743 -0.024768561 0.054350734 3
0.35344297 -0.024806172 0.053377867 3
0.35080785 -0.025996059 0.056633234 3
0.35185879 -0.026699007 0.055773973 3
0.35104877 -0.024706185 0.055833817 3
0.35054028 -0.024695516 0.056287527 3
0.35166129 -0.024510115 0.055144906 3
0.35058868 -0.025202721 0.057442904 3
0.35158408 -0.025145695 0.057054639 3
0.35251504 -0.025108814 0.056586027 3
0.35344276 -0.025072813 0.056114137 3
0.35232955 -0.02568844 0.057448864 3
0.35332495 -0.025545895 0.057606816 3
0.3528161 -0.021894962 0.054755688 3
0.35277301 -0.021216691 0.054696441 3
0.35275459 -0.02053082 0.054668188 3
0.35329908 -0.021567538 0.054267704 3
0.35319382 -0.020562738 0.054127932 3
0.35091275 -0.022503942 0.056737185 3
0.35113263 -0.023295909 0.055928111 3
0.35203397 -0.022324234 0.057051778 3
0.35102051 -0.020396531 0.056855679 3
0.35191381 -0.021146894 0.055800557 3
0.3517895 -0.021534404 0.056375068 3
0.35172039 -0.020515174 0.05555284 3
0.35135597 -0.020460308 0.056186318 3
0.35025388 -0.020465642 0.056985378 3
0.35120225 -0.021377206 0.057091296 3
0.3527478 -0.022355065 0.056311786 3
0.35306865 -0.023722142 0.056179643 3
0.35355407 -0.022357166 0.055687785 3
0.35298359 -0.022888511 0.057157636 3
0.35382813 -0.022794187 0.057127476 3
0.35236573 -0.021520615 0.055279255 3
0.35214877 -0.02055037 0.054999113 3
0.34624469 -0.019285202 0.054139614 3
0.34755439 -0.019051224 0.054684401 3
0.34707022 -0.018506318 0.05407393 3
0.34681368 -0.017198741 0.053742051 3
0.34702522 -0.016441941 0.054000735 3
0.34715414 -0.017788023 0.054173112 3
0.34808302 -0.019581974 0.055350423 3
0.34995425 -0.016410619 0.056577563 3
0.34655413 -0.015545309 0.053403854 3
0.34655213 -0.014506996 0.053392887 3
0.34795219 -0.014941663 0.054057598 3
0.34771317 -0.014321536 0.053753138 3
0.3467862 -0.013052076 0.053674102 3
0.34698349 -0.013685197 0.053926229 3
0.34658638 -0.012338459 0.053963959 3
0.34799093 -0.013546169 0.05409503 3
0.34798366 -0.01216495 0.054074764 3
0.34936285 -0.013988882 0.054726481 3
0.34813726 -0.012810647 0.054272413 3
0.34922874 -0.01333788 0.054553151 3
0.34915304 -0.01197809 0.054447532 3
0.34902775 -0.015308887 0.055408001 3
0.34993953 -0.015724212 0.056553602 3
0.34948659 -0.012569457 0.054870486 3
0.35193527 -0.019233108 0.054720759 3
0.35181332 -0.018233299 0.054559946 3
0.35164249 -0.017248452 0.05433774 3
0.3518649 -0.016308859 0.053517282 3
0.35147655 -0.016261935 0.054121614 3
0.35266206 -0.01952216 0.054544151 3
0.35273814 -0.018282488 0.053537309 3
0.35225838 -0.018263206 0.054026842 3
0.35355744 -0.019353956 0.054212689 3
0.35328823 -0.018280193 0.05313617 3
0.35234532 -0.017282397 0.05358237 3
0.35251638 -0.016275853 0.053243399 3
0.35319811 -0.017270595 0.053015351 3
0.35395706 -0.016347945 0.053965449 3
0.35101295 -0.019016773 0.056835413 3
0.35096365 -0.018340975 0.05676806 3
0.3516711 -0.019493252 0.055482984 3
0.35144022 -0.019397557 0.056283772 3
0.35166895 -0.018457055 0.055472493 3
0.35139763 -0.018374056 0.056222439 3
0.35045442 -0.019367278 0.05722791 3
0.35034269 -0.018364996 0.057079911 3
0.35107297 -0.019689322 0.056915879 3
0.35091415 -0.017319858 0.056697965 3
0.35090315 -0.016287178 0.05667603 3
0.35139805 -0.017503142 0.05512476 3
0.351307 -0.017365411 0.056100786 3
0.35120684 -0.016524553 0.054877043 3
0.3511349 -0.016381532 0.05587709 3
0.3502011 -0.017371878 0.056894481 3
0.35221761 -0.019837707 0.055080295 3
0.35219431 -0.015172064 0.053923368 3
0.35078612 -0.015286759 0.056521416 3
0.35038251 -0.014372855 0.056008101 3
0.35160947 -0.015711308 0.055376649 3
0.35147458 -0.015587777 0.056297302 3
0.3514964 -0.014200449 0.056313872 3
0.35206109 -0.014719993 0.057026625 3
0.35093063 -0.013335258 0.055597067 3
0.35054427 -0.012415349 0.05510509 3
0.35156983 -0.01296097 0.055305839 3
0.35181123 -0.012198329 0.055603266 3
0.35243165 -0.014935911 0.055312514 3
0.35267201 -0.01435414 0.056701064 3
0.35347366 -0.013930768 0.056615114 3
0.35228795 -0.013435155 0.056211591 3
0.35266101 -0.012451097 0.055582285 3
0.35360271 -0.013283968 0.056227267 3
0.35349607 -0.012532334 0.055178087 3
0.33843258 -0.011550933 0.054518301 3
0.33849257 -0.010430574 0.054219365 3
0.33927077 -0.011055827 0.054101944 3
0.33915448 -0.010396421 0.053951502 3
0.3390404 -0.0097363293 0.053803682 3
0.3382774 -0.0094531327 0.053943336 3
0.33924592 -0.008982718 0.054051995 3
0.34036076 -0.010202199 0.054358959 3
0.34007663 -0.0095924735 0.054000378 3
0.34112144 -0.0094459355 0.054208636 3
0.34004307 -0.011521518 0.055065155 3
0.34168959 -0.011542335 0.056022644 3
0.34127831 -0.010625035 0.05550313 3
0.343059 -0.010903507 0.052272916 3
0.34266144 -0.011391848 0.053963661 3
0.34339434 -0.011416808 0.05324167 3
0.34562653 -0.011239409 0.052754164 3
0.34581488 -0.011795074 0.053540111 3
0.34296393 -0.0111413 0.05542767 3
0.34279811 -0.011029422 0.056308508 3
0.34255069 -0.010410458 0.055995226 3
0.34367096 -0.01040104 0.055212975 3
0.34348267 -0.010296047 0.056066036 3
0.3422789 -0.0097983778 0.055651665 3
0.34400618 -0.0096103549 0.055623889 3
0.34345067 -0.0096137822 0.056020141 3
0.3466509 -0.011177719 0.052397251 3
0.34787643 -0.010975331 0.052838802 3
0.34672153 -0.011687189 0.053582072 3
0.3478846 -0.011502922 0.053945422 3
0.34899396 -0.011334389 0.054242969 3
0.34905988 -0.010785222 0.053229213 3
0.35005134 -0.011181206 0.054476738 3
0.35068393 -0.010463804 0.054173827 3
0.35174197 -0.0097814798 0.053314209 3
0.35365558 -0.010063589 0.054633021 3
0.35286289 -0.0096096396 0.053631306 3
0.35403061 -0.0088950396 0.05291152 3
0.35050154 -0.011737525 0.055046082 3
0.35159591 -0.011227489 0.055325389 3
0.35289192 -0.011347234 0.055864096 3
0.35281837 -0.010415614 0.055219233 3
0.35406488 -0.011158377 0.056247592 3
0.3536222 -0.010601431 0.055686355 3
0.35554212 -0.027255684 0.053852916 3
0.35546336 -0.027627399 0.054486196 3
0.35587817 -0.02645734 0.054271817 3
0.35463944 -0.024164006 0.052143335 3
0.35646391 -0.027221248 0.053373754 3
0.35648298 -0.027821183 0.053949952 3
0.35649779 -0.026518524 0.053411782 3
0.35761485 -0.027517864 0.053552788 3
0.35752523 -0.026450664 0.05306673 3
0.35553235 -0.026395351 0.054929495 3
0.35452282 -0.026030242 0.05802536 3
0.35438377 -0.02503261 0.055659175 3
0.35515893 -0.024959326 0.055542231 3
0.35450742 -0.025429487 0.057456017 3
0.35561186 -0.025337458 0.057208419 3
0.35579777 -0.025798827 0.058536768 3
0.35618126 -0.026019305 0.056838632 3
0.35636252 -0.025271505 0.057061791 3
0.35637242 -0.025788158 0.058169603 3
0.35756141 -0.02514936 0.056935132 3
0.35500294 -0.023795366 0.054243326 3
0.35438144 -0.021054447 0.054534078 3
0.35666558 -0.023523152 0.052507639 3
0.35652983 -0.023134947 0.052881598 3
0.3571766 -0.022763222 0.054792404 3
0.35433912 -0.023494542 0.056684136 3
0.35456854 -0.022210121 0.055871487 3
0.3553856 -0.023506045 0.055817723 3
0.35515994 -0.023407251 0.056624889 3
0.35453141 -0.022743762 0.056920528 3
0.35537261 -0.022650301 0.056887388 3
0.35497648 -0.020179331 0.055278182 3
0.35540569 -0.021427542 0.055828094 3
0.35705781 -0.022631139 0.055735111 3
0.35650048 -0.02220656 0.056667984 3
0.3563205 -0.022523403 0.056989193 3
0.35687858 -0.021483004 0.056593716 3
0.35682642 -0.02046445 0.0565207 3
0.35788038 -0.021508068 0.05567354 3
0.35750076 -0.021457791 0.056286454 3
0.3576299 -0.02038303 0.056442142 3
0.35862812 -0.026618496 0.053368211 3
0.35915184 -0.027489156 0.054037571 3
0.35950422 -0.02651234 0.053381503 3
0.35871679 -0.025553554 0.05347383 3
0.35858744 -0.025423288 0.054405093 3
0.3593275 -0.025531709 0.053151131 3
0.3601861 -0.027332127 0.05425179 3
0.36054766 -0.026352987 0.053607821 3
0.36163184 -0.027129978 0.054441214 3
0.36154169 -0.026554346 0.053774595 3
0.36059779 -0.025386661 0.053116977 3
0.36082584 -0.024538457 0.053949833 3
0.36169708 -0.025555119 0.053417504 3
0.36150289 -0.024580911 0.053164899 3
0.35871315 -0.025212675 0.055657625 3
0.35869294 -0.025048345 0.056724548 3
0.35815406 -0.024007797 0.054942369 3
0.35939527 -0.02430746 0.05651474 3
0.36091232 -0.024340421 0.055154204 3
0.36064062 -0.024170429 0.056450307 3
0.35873035 -0.022440016 0.053470969 3
0.35836846 -0.022038579 0.054105759 3
0.35959178 -0.023205757 0.054567695 3
0.35977548 -0.022282377 0.053699076 3
0.35862929 -0.021266878 0.054430962 3
0.35861954 -0.020234689 0.054411829 3
0.35979003 -0.02124247 0.053710938 3
0.35922444 -0.021250069 0.054089546 3
0.35978931 -0.020207524 0.053703487 3
0.35914949 -0.020238191 0.053988099 3
0.36053485 -0.021523908 0.053561807 3
0.36070383 -0.020436287 0.053769588 3
0.36166376 -0.020995349 0.053896189 3
0.36161238 -0.020321786 0.053826809 3
0.35817969 -0.021928519 0.054960966 3
0.35819125 -0.021234721 0.05497086 3
0.35841554 -0.020475 0.055249572 3
0.35807955 -0.020411342 0.05591774 3
0.36097872 -0.023459613 0.056327343 3
0.36190438 -0.023338258 0.056406498 3
0.36153609 -0.022505179 0.055386662 3
0.35524541 -0.018191606 0.054509759 3
0.35524899 -0.017500013 0.054509521 3
0.35467649 -0.019581258 0.05489552 3
0.35686019 -0.019419447 0.056555986 3
0.35651213 -0.018492252 0.056110382 3
0.3577553 -0.019309968 0.05659318 3
0.35804015 -0.018188268 0.056945205 3
0.35627902 -0.016494811 0.055802107 3
0.3578378 -0.017561495 0.056685209 3
0.35783097 -0.016530097 0.056669533 3
0.35454735 -0.012372836 0.054681122 3
0.35551846 -0.012325205 0.054266602 3
0.35703516 -0.014525712 0.054557562 3
0.35788572 -0.015465736 0.05454582 3
0.35774088 -0.014125724 0.053624075 3
0.35750943 -0.014546096 0.054063678 3
0.35656974 -0.013462852 0.054326613 3
0.35665786 -0.012653157 0.053520977 3
0.35652149 -0.011923105 0.053890586 3
0.35751066 -0.013248742 0.053509414 3
0.35749921 -0.012130301 0.053305071 3
0.35453826 -0.014626086 0.055777907 3
0.35593027 -0.015057325 0.056443691 3
0.35459977 -0.013228297 0.05584538 3
0.35447472 -0.013791949 0.056782842 3
0.35412091 -0.011993289 0.05523324 3
0.35535228 -0.013246357 0.055156112 3
0.35563698 -0.013686001 0.056609809 3
0.35685796 -0.01528427 0.056524158 3
0.35684568 -0.01441887 0.055410385 3
0.35643253 -0.014297917 0.056526065 3
0.35776657 -0.01533702 0.055487633 3
0.35748315 -0.015258506 0.056221366 3
0.3564615 -0.013764068 0.055467069 3
0.35904503 -0.019235522 0.05384922 3
0.35872239 -0.01916793 0.054535151 3
0.35884443 -0.018524006 0.054138064 3
0.35964233 -0.019218177 0.053510785 3
0.35958481 -0.018546075 0.053433537 3
0.35898244 -0.017185301 0.053756833 3
0.35861927 -0.017475411 0.054393411 3
0.35901821 -0.016484708 0.053797603 3
0.35869467 -0.01641801 0.054481983 3
0.35957685 -0.017513826 0.053417027 3
0.35911626 -0.017833859 0.053930521 3
0.35949767 -0.016503602 0.053310275 3
0.36082393 -0.018497586 0.052813768 3
0.36045772 -0.019478112 0.05345118 3
0.36020029 -0.018523127 0.053118348 3
0.36136797 -0.019363448 0.053510368 3
0.36205041 -0.018285483 0.053274989 3
0.36077037 -0.017479569 0.052739501 3
0.36076325 -0.016447365 0.052724361 3
0.36017805 -0.017495334 0.053083777 3
0.3600691 -0.016494364 0.052939296 3
0.35831419 -0.01947172 0.055114686 3
0.35817039 -0.019348875 0.056025326 3
0.35828578 -0.018445939 0.05507195 3
0.35841417 -0.018239588 0.056326032 3
0.35857239 -0.017323598 0.055427015 3
0.35834771 -0.017570972 0.056237459 3
0.3585515 -0.016296148 0.055393815 3
0.35837409 -0.016529381 0.056263685 3
0.35994548 -0.015497908 0.052776158 3
0.35915297 -0.014540225 0.052860618 3
0.35856757 -0.015418053 0.053584654 3
0.35832942 -0.015840322 0.054015636 3
0.35854501 -0.014560461 0.053185463 3
0.3593176 -0.015524358 0.053075612 3
0.35914731 -0.013852447 0.052848935 3
0.35848022 -0.013545841 0.053096831 3
0.35835159 -0.012550592 0.052927256 3
0.35921186 -0.01314348 0.052926421 3
0.3608802 -0.014178902 0.05395484 3
0.36194456 -0.015396088 0.054219127 3
0.36012781 -0.012177378 0.054082394 3
0.36189729 -0.01318118 0.055240154 3
0.36298829 -0.027818948 0.053426981 3
0.36280572 -0.027014226 0.054287434 3
0.36256784 -0.026399851 0.053981185 3
0.3632912 -0.027031749 0.053808093 3
0.36238617 -0.025767416 0.053746462 3
0.36287707 -0.024402946 0.053265572 3
0.36330828 -0.025301248 0.053819835 3
0.36387289 -0.024258852 0.053435445 3
0.36419833 -0.026914626 0.053865314 3
0.36496472 -0.027359188 0.054844379 3
0.36449412 -0.026044443 0.054785728 3
0.36558449 -0.026299626 0.054531276 3
0.364856 -0.025325894 0.054694176 3
0.36443675 -0.024769783 0.05415678 3
0.36507159 -0.024050415 0.053864717 3
0.36531723 -0.02466172 0.054181337 3
0.3659116 -0.0277448 0.056053042 3
0.36598837 -0.025137395 0.055040002 3
0.36257166 -0.02372402 0.053421676 3
0.36383414 -0.023581475 0.053382158 3
0.36221027 -0.021513909 0.054593801 3
0.36243558 -0.02023375 0.053776503 3
0.36296916 -0.020756394 0.05445838 3
0.36481601 -0.023442 0.053535461 3
0.36434114 -0.022817254 0.053475201 3
0.36568642 -0.023337573 0.053547502 3
0.36554432 -0.022348911 0.053360701 3
0.36538208 -0.021885574 0.05424881 3
0.36260426 -0.023458093 0.055106282 3
0.3626141 -0.023284793 0.056212664 3
0.362719 -0.02256301 0.05634141 3
0.36388826 -0.022365034 0.056731582 3
0.36332321 -0.021854103 0.056010365 3
0.36418837 -0.022610247 0.054924607 3
0.36453652 -0.022330821 0.056461334 3
0.36422485 -0.021052241 0.056057334 3
0.36498201 -0.020296067 0.055921674 3
0.36584425 -0.021570683 0.055932283 3
0.36541176 -0.020849377 0.056472063 3
0.36485952 -0.021541297 0.056867599 3
0.36581802 -0.021409571 0.056992531 3
0.36784661 -0.027816296 0.054134607 3
0.36654079 -0.025822103 0.054651618 3
0.36660272 -0.024424911 0.054723144 3
0.36649543 -0.027041703 0.055697322 3
0.36689794 -0.027601242 0.056213856 3
0.36782569 -0.027649611 0.055204988 3
0.3679989 -0.0274207 0.056521535 3
0.36709899 -0.026332527 0.055366874 3
0.36795431 -0.026746929 0.056461096 3
0.36677486 -0.025058776 0.054946303 3
0.36760777 -0.024965256 0.054912448 3
0.36781609 -0.024210721 0.055174589 3
0.3686682 -0.026346728 0.056274593 3
0.36969602 -0.027394623 0.05540061 3
0.37002027 -0.026602477 0.055811644 3
0.36953831 -0.026584357 0.056291699 3
0.36806756 -0.025506914 0.055502772 3
0.36855787 -0.024490267 0.055027068 3
