# .PCD v0.7 - Point Cloud Data file format
VERSION 0.7
FIELDS x y z
SIZE 4 4 4
TYPE F F F
COUNT 1 1 1
WIDTH 1377
HEIGHT 1
VIEWPOINT 0 0 0 1 0 0 0
POINTS 1377
DATA ascii
0.40158796 0.0073575079 0.053926826
0.39855784 0.0079226494 0.05543077
0.39993399 0.0061460733 0.056148171
0.40043008 0.0047858059 0.055703402
0.40090358 0.0056011081 0.056328893
0.40152359 0.0046228268 0.055313271
0.40148127 0.0042656362 0.055992365
0.40161294 0.0054967999 0.055063725
0.40150464 0.0056219995 0.056022644
0.4006426 0.006614238 0.056533754
0.40044916 0.0076469481 0.056827664
0.4015058 0.0064172246 0.055288989
0.40135849 0.0070060939 0.05637908
0.40142456 0.0075437427 0.055364668
0.4010787 0.0076760352 0.056559205
0.40137804 0.0086721331 0.051437795
0.40144378 0.0085094273 0.052630782
0.40126938 0.0096539855 0.051293373
0.40128019 0.0094745755 0.052413642
0.40100801 0.0093677938 0.054260969
0.40146971 0.0086727142 0.053769708
0.4013502 0.0084558427 0.05471462
0.40125865 0.009623304 0.053489625
0.4010554 0.011618525 0.051009059
0.40102637 0.01176399 0.052076459
0.40120098 0.010647506 0.051202536
0.40125716 0.010480672 0.052382827
0.40113211 0.011119485 0.052216768
0.4010368 0.010571092 0.053195238
0.40086877 0.010676622 0.054076195
0.40076822 0.011919871 0.053390682
0.40083247 0.011340678 0.054027796
0.40132993 0.010136247 0.054687142
0.40111798 0.01126948 0.053302646
0.39906538 0.0087460577 0.056099892
0.3997314 0.0096146762 0.056978106
0.39987072 0.010666072 0.057161093
0.39986336 0.011674613 0.057150483
0.40127689 0.0089270473 0.055719614
0.40125987 0.0085761249 0.056431215
0.40129113 0.0096053779 0.055737972
0.40116251 0.0097225904 0.056668758
0.40064442 0.0087153763 0.057084858
0.4007479 0.0097563267 0.057220817
0.40106368 0.010367632 0.056537628
0.40100402 0.011544138 0.055357099
0.40089774 0.011666954 0.056317449
0.40127817 0.010612652 0.055720389
0.40107614 0.011044979 0.056553721
0.40062433 0.010730892 0.057056725
0.4004944 0.0117037 0.056884289
0.39471787 0.012492239 0.054769337
0.39462245 0.013478369 0.054642439
0.39538527 0.012367487 0.054180186
0.39512289 0.013469249 0.054200172
0.39467564 0.014343719 0.054344457
0.39438874 0.015438467 0.054332256
0.39514869 0.014827639 0.054232478
0.39557368 0.015623331 0.054790974
0.39617479 0.012942463 0.054485321
0.39643776 0.013692886 0.054831028
0.3943032 0.012525916 0.055324018
0.39419967 0.012648523 0.056286633
0.39419472 0.013508201 0.055179954
0.39758223 0.014693946 0.056337476
0.39437422 0.01644744 0.054311752
0.39465624 0.017539442 0.054681063
0.39441586 0.019645035 0.05546093
0.39681602 0.016649216 0.056424737
0.39768034 0.017566621 0.057561278
0.39612448 0.018625557 0.056610346
0.39693689 0.019526184 0.057677388
0.39778769 0.018606335 0.05770123
0.39784792 0.019558296 0.057230592
0.39999664 0.015822262 0.052918792
0.39998657 0.015970498 0.054008245
0.4009048 0.012741521 0.05191499
0.40053785 0.013648659 0.05142796
0.40061018 0.013484642 0.052628815
0.40080935 0.012606367 0.053444922
0.40046826 0.01359646 0.053544402
0.40035746 0.013717055 0.054500222
0.40064436 0.014354289 0.051569223
0.40039346 0.014772013 0.052341163
0.40020776 0.015731066 0.052094579
0.40017259 0.014523476 0.053152442
0.40007752 0.014648169 0.054129362
0.40014654 0.015190512 0.053117633
0.40017545 0.015350223 0.054258585
0.39898634 0.012922138 0.057091236
0.39996693 0.012714833 0.057286322
0.39961499 0.013699979 0.057370365
0.39983863 0.016079366 0.054914117
0.39977357 0.015613705 0.056478858
0.39848059 0.015623212 0.057519913
0.39956698 0.014696158 0.057305962
0.39924258 0.015689015 0.057426214
0.40085611 0.012512416 0.05516088
0.40065801 0.012771507 0.056366444
0.40049517 0.013648152 0.056333959
0.40051681 0.012383729 0.056913257
0.40043482 0.014565155 0.055703342
0.40018925 0.01464662 0.056478858
0.4001565 0.015496105 0.055334687
0.39960963 0.016573548 0.05130136
0.39973587 0.016759992 0.052572966
0.3992056 0.017546892 0.051317871
0.39909256 0.017740101 0.05282414
0.39954674 0.017194062 0.05342555
0.39952523 0.017674997 0.054498672
0.39884263 0.018531993 0.051388919
0.39880779 0.018671677 0.052446663
0.39806837 0.019476354 0.051467657
0.39877716 0.018812373 0.053508818
0.39839494 0.019716471 0.053002715
0.39866927 0.019604966 0.054466903
0.40008444 0.016672254 0.054137349
0.39980331 0.016818285 0.05541718
0.39960536 0.016488761 0.056439202
0.39947301 0.017810136 0.05553019
0.39928639 0.017570555 0.05638361
0.39868864 0.016754052 0.05742681
0.39874038 0.017641053 0.057310998
0.39916134 0.016339064 0.057318449
0.39891967 0.018739179 0.055348516
0.39868322 0.018559813 0.056685627
0.39858431 0.019729741 0.05545485
0.39838958 0.019487113 0.056297421
0.39906919 0.018182516 0.056096315
0.39831847 0.018606409 0.057302833
0.3940382 0.021676764 0.040573716
0.39377797 0.020734094 0.041342497
0.39368397 0.021726921 0.041217566
0.39347234 0.021476887 0.042050242
0.3940137 0.022688918 0.040541291
0.39399707 0.023703009 0.040519118
0.39336261 0.022730913 0.041347593
0.39337209 0.023752004 0.041359961
0.39317232 0.023917139 0.042764068
0.39392206 0.024700977 0.040419459
0.39400327 0.025741369 0.040527463
0.392995 0.024547204 0.042528749
0.39286157 0.025528558 0.042351484
0.3932879 0.024747297 0.041248024
0.39335945 0.025784828 0.041342795
0.3937428 0.026850322 0.040552575
0.39351425 0.027717575 0.04043448
0.39293569 0.027099803 0.041336656
0.39270192 0.026502937 0.042139292
0.39289677 0.027767792 0.041284919
0.39243352 0.02752028 0.042339087
0.39331973 0.026452623 0.041289985
0.39352655 0.022657394 0.043234229
0.39324951 0.023259804 0.042866588
0.39347911 0.023469388 0.04428184
0.39191774 0.027597718 0.043322623
0.39161533 0.0276604 0.044032514
0.39290601 0.024668902 0.043522239
0.39270076 0.025630303 0.043249846
0.39244163 0.02604419 0.044016957
0.3934325 0.024134502 0.044219971
0.39365035 0.025017291 0.045617223
0.39313996 0.025555864 0.044941545
0.39235753 0.026627004 0.043349981
0.39218366 0.026796877 0.044784665
0.39300311 0.026340961 0.045868397
0.39254665 0.027715892 0.046371698
0.39400715 0.025936276 0.047196388
0.393058 0.027176946 0.047047615
0.39397103 0.026747301 0.048254132
0.39400721 0.027576789 0.049406052
0.39395911 0.027707532 0.050446033
0.38618094 0.034055129 0.042402148
0.38715541 0.032811746 0.042577982
0.38606864 0.034704775 0.042253256
0.3861925 0.036094055 0.042414308
0.39199203 0.029508173 0.042308986
0.39162338 0.030498408 0.042375803
0.39152294 0.031488702 0.042242169
0.39393973 0.028633706 0.039328098
0.39348215 0.028726708 0.040391624
0.39360219 0.029776335 0.040551126
0.39272007 0.028672814 0.041421015
0.39217716 0.028540596 0.042554736
0.39249983 0.029566029 0.041499455
0.3934381 0.030660639 0.040518682
0.39361152 0.031563323 0.040377695
0.39258781 0.030672118 0.041245025
0.39234149 0.031558242 0.041288733
0.39174122 0.033707216 0.040862679
0.39083448 0.032804236 0.042440832
0.39075941 0.033731028 0.041785479
0.39045271 0.033452198 0.042490602
0.39175299 0.032763779 0.041434675
0.39111543 0.032468691 0.042257547
0.39124918 0.033718809 0.041322589
0.39176679 0.034929842 0.039783239
0.39149532 0.034659974 0.040536225
0.39123678 0.035470173 0.039079666
0.39142364 0.035658211 0.040440679
0.39079025 0.034822196 0.041455191
0.39033067 0.034436911 0.042328358
0.39033484 0.035115674 0.042333484
0.39123797 0.034393772 0.041307449
0.39110166 0.035713866 0.041126013
0.39138108 0.035925522 0.042606831
0.39252585 0.032755516 0.040791214
0.39237684 0.033733264 0.040593147
0.39307654 0.032759331 0.040409148
0.39339119 0.033858687 0.040827036
0.39224607 0.034376919 0.04041934
0.38969824 0.031911798 0.044268489
0.3900556 0.032104373 0.050813079
0.38694072 0.032896012 0.043403745
0.38677233 0.033530504 0.043181181
0.38737518 0.032190695 0.042868257
0.3878876 0.033681408 0.043541551
0.38765186 0.034637168 0.043229699
0.38770628 0.035668164 0.043300033
0.38858187 0.032366574 0.043349743
0.38902017 0.033498213 0.043926358
0.3899222 0.032577798 0.044009209
0.38980687 0.033629958 0.043486238
0.38875699 0.034784958 0.04357779
0.38835597 0.03569746 0.043047905
0.38970974 0.034484722 0.043172359
0.38953963 0.035367157 0.043131709
0.3869552 0.035090953 0.050044537
0.38640118 0.035623595 0.049318075
0.38655859 0.035126805 0.050625443
0.38750175 0.034597069 0.049293596
0.38845631 0.033781864 0.049261749
0.38857585 0.033614881 0.050520122
0.38991731 0.032743216 0.050630331
0.38939208 0.033280879 0.04993999
0.39090151 0.029984772 0.044196367
0.39165971 0.028617226 0.04353559
0.39123821 0.02871941 0.04464221
0.39142814 0.029572152 0.043228537
0.39110255 0.029360726 0.044462323
0.39058638 0.030043364 0.044888496
0.39203542 0.028255552 0.045695782
0.39121968 0.029534653 0.045724869
0.39082134 0.030570008 0.043535233
0.39070565 0.031556029 0.043381512
0.39026314 0.03131263 0.044460416
0.39057195 0.030716941 0.044868708
0.39028966 0.031743571 0.047813773
0.39121664 0.031171069 0.047930837
0.39078593 0.030805781 0.050673485
0.3907547 0.032007128 0.049528599
0.39057827 0.031763814 0.050398946
0.39157432 0.030731618 0.049506187
0.39160594 0.030384308 0.050283194
0.39144057 0.031371698 0.049329162
0.39110094 0.031423107 0.049984813
0.39262947 0.029554784 0.04832232
0.39358193 0.028137818 0.048844218
0.39288175 0.028911725 0.050127387
0.39241046 0.029461086 0.04950583
0.39248395 0.029623106 0.050704956
0.39351791 0.028867714 0.049310923
0.39343905 0.028314456 0.050311089
0.39230871 0.030643001 0.048266292
0.39225611 0.030433193 0.049301207
0.390369 0.032554358 0.04349041
0.39016891 0.033179432 0.043225527
0.39031005 0.035925776 0.043409348
0.39146328 0.036085814 0.043824673
0.39019573 0.032676071 0.04989481
0.39447847 0.020705413 0.04060176
0.3946743 0.021704391 0.040304661
0.39552027 0.020771429 0.040315092
0.39565074 0.021826148 0.040489197
0.39467388 0.022723049 0.040304244
0.39462936 0.023729384 0.040245175
0.39552939 0.022471547 0.040327787
0.39548668 0.023478121 0.040271103
0.39755246 0.020508796 0.041907549
0.3980087 0.021652475 0.042516351
0.39464557 0.024752185 0.040266871
0.39444578 0.025715962 0.040001154
0.39550537 0.024501249 0.040296197
0.39536816 0.025481671 0.040113747
0.39447933 0.027009979 0.039488196
0.39449549 0.026408181 0.040067315
0.39412248 0.027664781 0.039571047
0.39517367 0.026446715 0.039854884
0.39418215 0.020655081 0.042992353
0.39563441 0.02038011 0.04491961
0.39547467 0.02183871 0.045817375
0.39423376 0.022173837 0.044171929
0.39513296 0.023245633 0.046472788
0.39723003 0.020147219 0.047037125
0.39736986 0.021010756 0.048330307
0.3970958 0.021610677 0.047966838
0.39805108 0.020524606 0.049233675
0.39763129 0.020630188 0.050336003
0.39736211 0.021832108 0.049426198
0.39748356 0.0216019 0.050139904
0.39669758 0.022661902 0.048545659
0.39703584 0.022564471 0.050099134
0.39650738 0.023431897 0.049399495
0.39627498 0.023514457 0.050196826
0.39445418 0.024559498 0.046681404
0.39482403 0.025482073 0.048276901
0.39560568 0.024197966 0.048205614
0.39552999 0.024998724 0.049210668
0.39598796 0.024521366 0.050368547
0.39544922 0.025459677 0.050208032
0.39492673 0.026330471 0.049517035
0.39466667 0.026742123 0.050277293
0.38658303 0.02097787 0.056180835
0.38687593 0.02173394 0.05656004
0.38754183 0.020565823 0.057430387
0.3879925 0.022714406 0.058011055
0.38773656 0.023817414 0.058039069
0.38888371 0.02078864 0.058083773
0.38975409 0.020481071 0.058490396
0.38975424 0.022084549 0.05702734
0.38941514 0.021536186 0.058227837
0.38875401 0.023980945 0.056812167
0.39005655 0.022696137 0.056325316
0.38976532 0.023893572 0.055393815
0.38939872 0.023513189 0.056194466
0.38891193 0.022482857 0.058116019
0.3885853 0.023581862 0.057322621
0.38949451 0.022560403 0.057416838
0.3896848 0.025149286 0.05473721
0.38894331 0.02644299 0.054861665
0.38772222 0.025532715 0.056557238
0.38690934 0.025601037 0.057686031
0.38638285 0.025602773 0.058094025
0.38764638 0.024644211 0.057554841
0.38713759 0.024650753 0.057985783
0.38730854 0.025564931 0.057112336
0.38677672 0.026771538 0.056416333
0.3869471 0.02768676 0.055541158
0.38643914 0.027693599 0.055974126
0.38777587 0.026753359 0.05552882
0.38724932 0.026755214 0.055937529
0.3874616 0.027681664 0.055116415
0.38643974 0.026486769 0.057072401
0.38632399 0.027130559 0.056919932
0.38873023 0.02457685 0.056231976
0.38859114 0.025479376 0.055500329
0.38814196 0.025502078 0.056009591
0.38966826 0.024542101 0.055265367
0.38940966 0.025620932 0.055107713
0.38807112 0.0246149 0.057014346
0.38832334 0.026757166 0.055147469
0.38815057 0.027723268 0.054919481
0.38943946 0.027251095 0.055508256
0.39144033 0.023312256 0.054844379
0.3922708 0.021706916 0.054838181
0.39103657 0.021997899 0.05541575
0.39057735 0.021841982 0.056277435
0.39178824 0.020708397 0.055305362
0.39147314 0.02059266 0.056355715
0.39152178 0.02158376 0.055320382
0.39094698 0.020579979 0.057493865
0.39051098 0.020606562 0.058018982
0.39042008 0.021519743 0.057350755
0.39138883 0.020217746 0.056977034
0.39072937 0.022661559 0.055560768
0.39051875 0.023479527 0.05510056
0.39155716 0.022669449 0.054998755
0.3922348 0.020420879 0.055342376
0.39325827 0.020820454 0.055037141
0.39332634 0.023008645 0.056220174
0.39361888 0.027759522 0.051100016
0.39376363 0.027604751 0.052392185
0.39364931 0.027717397 0.053341806
0.39385891 0.027580261 0.054716229
0.39062977 0.024586141 0.054877758
0.39184672 0.02708146 0.057560682
0.39258462 0.024299055 0.056341887
0.39219856 0.025686085 0.056929111
0.39387456 0.025659956 0.058029413
0.39379907 0.027707472 0.055735111
0.39360994 0.027799726 0.056583166
0.39269406 0.027910836 0.058120251
0.39374143 0.026632965 0.057853103
0.39313072 0.026611522 0.058147669
0.39367461 0.027464017 0.057398837
0.3932153 0.027307004 0.058256984
0.38639736 0.028623909 0.055369705
0.38659626 0.029618427 0.055078506
0.38752446 0.028710812 0.055195689
0.38699019 0.031212553 0.056681633
0.38992751 0.028872281 0.057236552
0.38854527 0.030808449 0.05761528
0.38998866 0.030712903 0.058404982
0.38966095 0.031705759 0.058521032
0.3877368 0.033942804 0.051070333
0.38666439 0.034686647 0.052412748
0.38616478 0.035163298 0.051209807
0.3873862 0.034596525 0.051159739
0.38791144 0.034127504 0.052397251
0.38644195 0.034836784 0.053767443
0.38616419 0.035439625 0.053403497
0.38621771 0.035591483 0.054568529
0.38759172 0.034183308 0.053076863
0.38754565 0.034310222 0.05411315
0.38837814 0.033365123 0.051361561
0.38955635 0.032451175 0.051257849
0.38947746 0.032570675 0.052253723
0.38903964 0.033072993 0.053875446
0.38836163 0.033570111 0.052987456
0.38865325 0.033448607 0.05446583
0.38912588 0.03295581 0.052891016
0.38979578 0.032527253 0.054317415
0.38627505 0.033326015 0.057929873
0.38728577 0.032777458 0.058154225
0.38781369 0.034053184 0.057199359
0.38762057 0.033538058 0.058587432
0.38702154 0.0351253 0.055617571
0.38686186 0.035222098 0.056502819
0.3875128 0.034440443 0.055165291
0.38757455 0.034595072 0.056339741
0.38658306 0.034574494 0.058689874
0.38635507 0.035297908 0.057481885
0.38744879 0.034700841 0.05726862
0.38725582 0.034452595 0.058110178
0.38864878 0.03358677 0.055555165
0.38850027 0.033687219 0.056455553
0.38944608 0.032645404 0.055503964
0.38907695 0.032688379 0.056116581
0.38904577 0.032819927 0.057169318
0.38855171 0.032698706 0.05834667
0.38854158 0.033500463 0.057603002
0.38813931 0.033534467 0.058171034
0.38964331 0.032233842 0.057403922
0.3890692 0.032292813 0.058293939
0.39204895 0.029791534 0.052334547
0.39171326 0.029844135 0.052993178
0.39172578 0.029989332 0.054107904
0.39100003 0.031003818 0.052054763
0.39067137 0.031591699 0.051622391
0.39044237 0.03167212 0.052421331
0.39129108 0.030264661 0.051337957
0.39120787 0.030384272 0.052328825
0.39066491 0.031464055 0.053262949
0.39066255 0.031515345 0.054540198
0.39117277 0.030516505 0.053381562
0.39122379 0.030671418 0.054545879
0.39271608 0.028832793 0.051378768
0.39292622 0.028534517 0.052389503
0.39223146 0.029698044 0.051474214
0.39220452 0.029158562 0.052540064
0.39276582 0.028634369 0.053278446
0.39262736 0.028739959 0.054195166
0.39220679 0.029301509 0.053642035
0.39229405 0.029466972 0.054854155
0.39346486 0.028147936 0.054197669
0.39201742 0.029677123 0.05668366
0.39086479 0.029795155 0.05845809
0.39146894 0.028468877 0.058157444
0.3917141 0.029738039 0.057381153
0.39158791 0.029509805 0.058310449
0.39104867 0.030907333 0.056508183
0.39041886 0.031750843 0.05568248
0.39145896 0.030467682 0.055402815
0.39188445 0.030314788 0.056508183
0.39080936 0.030984893 0.057289481
0.39064062 0.030744731 0.058162928
0.3904236 0.031626195 0.057330728
0.391426 0.030404992 0.057549834
0.39299279 0.0289803 0.05577147
0.39284205 0.029082283 0.056669593
0.39236611 0.029628247 0.056044936
0.39330822 0.028248847 0.055089712
0.39321667 0.028367087 0.056066394
0.39283681 0.028550446 0.057758808
0.39242679 0.028583035 0.058315992
0.39243937 0.029116809 0.057237148
0.39212441 0.029174715 0.057919145
0.39313328 0.028487399 0.057052493
0.39008218 0.032139152 0.056336403
0.39694279 0.022010922 0.051080942
0.39804697 0.020145193 0.051438928
0.39775658 0.020887181 0.05215776
0.39782709 0.021433577 0.051147103
0.39756817 0.021509379 0.051908135
0.39795721 0.02109082 0.053524971
0.39753145 0.021646708 0.052962065
0.3975597 0.021465033 0.054100811
0.39681649 0.022650942 0.050913572
0.3969267 0.022828132 0.05216217
0.39616331 0.023630053 0.051153064
0.39717513 0.022222325 0.05249095
0.39680934 0.022942439 0.05310905
0.39683515 0.022759221 0.054244041
0.39672536 0.023593411 0.052997589
0.39644489 0.023735486 0.054278314
0.39728713 0.02240029 0.053740144
0.39484727 0.021933645 0.057121038
0.39604104 0.020770654 0.057594538
0.39579958 0.02392301 0.056175232
0.39442807 0.02398394 0.057663321
0.39566442 0.022758812 0.057644665
0.39544511 0.023707822 0.057354897
0.39693809 0.022070989 0.056578279
0.39798832 0.02072148 0.055767059
0.39782006 0.020485945 0.056643903
0.39741054 0.021732325 0.055370409
0.39729229 0.02142252 0.056496501
0.39687264 0.020854145 0.057590961
0.39680648 0.021508634 0.057503104
0.39625436 0.021502733 0.057873487
0.39749059 0.020542011 0.057307541
0.39708745 0.020241097 0.057874322
0.39668506 0.02252759 0.055146098
0.3965407 0.022634327 0.056054473
0.39639544 0.023531146 0.055312872
0.39637426 0.023334749 0.056383252
0.39635491 0.022329813 0.057273548
0.39495444 0.025952354 0.051760435
0.39489895 0.02608189 0.052788615
0.39563411 0.024643153 0.05155623
0.39527744 0.025557995 0.051084638
0.39552867 0.025434092 0.052518249
0.39489612 0.025624059 0.054435253
0.39588508 0.024680892 0.05335601
0.39559928 0.024572005 0.054446179
0.39532626 0.025523901 0.053352237
0.39461207 0.02653414 0.051308274
0.39449066 0.026645526 0.052249908
0.39431244 0.027199849 0.051463485
0.39458278 0.026477605 0.053472042
0.39439824 0.026571803 0.054328382
0.39626712 0.024141848 0.052392125
0.39493877 0.025852472 0.056137919
0.39568985 0.024566099 0.056029916
0.39540267 0.025160894 0.055651426
0.3952027 0.02525124 0.056485772
0.39457744 0.024697602 0.057857871
0.39459711 0.02563978 0.057334214
0.39530352 0.024678305 0.057167411
0.39434811 0.026702233 0.055360496
0.39446509 0.026541159 0.056611538
0.39409959 0.02711533 0.056130528
0.39415324 0.026600629 0.057297945
0.39809859 0.020308033 0.052610517
0.39816254 0.020474046 0.053796768
0.39812553 0.020611763 0.054848433
0.39823681 0.020117551 0.056095243
0.40186489 0.035942137 0.05097878
0.37385267 0.043654047 0.041198194
0.37577981 0.042848229 0.038728952
0.37579834 0.043534175 0.038751602
0.37690741 0.041496783 0.037986875
0.37756723 0.040980116 0.038851142
0.37740254 0.041485459 0.037524223
0.37668291 0.042463362 0.037690938
0.37627888 0.042497277 0.038272738
0.37676036 0.043504775 0.037789702
0.37612444 0.043481231 0.038068414
0.37735468 0.042155147 0.037460089
0.37599605 0.041942015 0.042334557
0.37477925 0.042934954 0.040193796
0.37493867 0.043588758 0.039846063
0.37432939 0.04357183 0.040159583
0.37573338 0.042471763 0.039408524
0.37529624 0.042314947 0.040315747
0.37538201 0.043564826 0.039316535
0.3752861 0.042446315 0.041408658
0.37516588 0.043230593 0.042355061
0.37673885 0.041589439 0.038875937
0.37667322 0.041707635 0.039898515
0.37726855 0.04104045 0.039569497
0.37804431 0.040553778 0.040584564
0.3768872 0.040669292 0.042393923
0.37653133 0.041873842 0.04137361
0.37693286 0.041360795 0.042451382
0.37803322 0.04068616 0.041676998
0.37754309 0.040698469 0.042143464
0.37756884 0.041250288 0.041069031
0.37742823 0.041349858 0.04199183
0.37383348 0.041528761 0.046143413
0.37593472 0.042060822 0.043358803
0.37495112 0.040993422 0.046493292
0.37428606 0.041507304 0.045629382
0.37521172 0.040924072 0.045730829
0.37592542 0.04042314 0.046658397
0.37493658 0.043307185 0.043160677
0.37587696 0.042859837 0.04438448
0.37414378 0.0421516 0.045442581
0.37435627 0.04295025 0.046265304
0.37658197 0.041407764 0.043099046
0.37668735 0.041568369 0.044339538
0.37735957 0.040922225 0.044112921
0.37725317 0.041030258 0.045077324
0.37771237 0.040601 0.046777368
0.37657547 0.042899355 0.04418993
0.37753403 0.042591721 0.046539187
0.37455308 0.04102847 0.047077179
0.37530613 0.040402889 0.046955466
0.37553293 0.040594146 0.048347831
0.37578267 0.040790886 0.049767971
0.37649268 0.041922033 0.047389269
0.37748015 0.040134162 0.04867661
0.37729996 0.041310772 0.047339559
0.37709844 0.040173262 0.04927969
0.37721455 0.040337056 0.050526619
0.37683827 0.042686045 0.047835112
0.37798744 0.042498909 0.048228323
0.37082326 0.044891492 0.036700368
0.37082088 0.045023113 0.037805676
0.37078094 0.045486584 0.038859963
0.37168962 0.044420332 0.037828922
0.37107342 0.044402152 0.038136005
0.370727 0.046496823 0.03878653
0.37090582 0.047497787 0.038461924
0.37192816 0.046393961 0.037024379
0.37215555 0.045766771 0.037322402
0.37319618 0.045338348 0.038678765
0.37292612 0.044173941 0.040544868
0.37395573 0.044842497 0.039669156
0.37338567 0.044154003 0.040036201
0.37259579 0.048050195 0.038996577
0.37400925 0.047579736 0.039730668
0.37194264 0.049256295 0.038143039
0.37245667 0.048698097 0.038813591
0.37245554 0.050060391 0.038807869
0.37237149 0.050721541 0.038696527
0.37276465 0.052048519 0.038096666
0.37334085 0.05082345 0.038850665
0.37310308 0.051447779 0.03853929
0.37358916 0.048840225 0.03918004
0.37341225 0.04947871 0.038947701
0.3756285 0.044514261 0.03852731
0.37607408 0.044150248 0.038000941
0.37450254 0.044434015 0.039644558
0.37471008 0.045575887 0.039542556
0.37527451 0.044560105 0.039173603
0.37561202 0.045664206 0.039610863
0.3749119 0.046306014 0.039803505
0.37586579 0.047558218 0.041043162
0.37719935 0.045107737 0.039469123
0.37716085 0.045910805 0.040524364
0.37694228 0.046668991 0.041343451
0.3770206 0.047707357 0.041442752
0.37766361 0.047732547 0.041176081
0.37422228 0.048311874 0.040005922
0.37572855 0.04922469 0.040859461
0.37606156 0.048625201 0.041295171
0.37754992 0.048658796 0.040471852
0.37749892 0.049940556 0.039848447
0.37743458 0.049558606 0.040503342
0.3768099 0.048675567 0.041165352
0.37661457 0.049804181 0.041276019
0.3779465 0.050597951 0.039324522
0.37737432 0.050654821 0.040237367
0.37802678 0.051296577 0.039427757
0.37760493 0.051594034 0.040351789
0.37660119 0.050728112 0.041440189
0.37648788 0.051627945 0.041473985
0.37163207 0.04743468 0.046021998
0.3727186 0.04777611 0.045226753
0.37062585 0.046550885 0.050758481
0.3706491 0.047573417 0.050783694
0.37112337 0.046540946 0.05030477
0.37165806 0.04749199 0.049346924
0.37162441 0.047613807 0.050397813
0.37155086 0.048159316 0.046463609
0.37277341 0.048603252 0.045477789
0.37234896 0.048560888 0.046394706
0.37060142 0.049256474 0.050714493
0.37128508 0.049291179 0.050500393
0.37281752 0.048593625 0.049194217
0.37902606 0.039712846 0.03854382
0.37948018 0.039691254 0.038028359
0.38082916 0.038533866 0.038689613
0.38049212 0.039197594 0.038801491
0.37892705 0.039823815 0.03952384
0.37968844 0.03919898 0.039412856
0.37968081 0.038245827 0.042728901
0.38097924 0.037891179 0.038887739
0.38196748 0.036782295 0.04018712
0.38177395 0.037344337 0.039376795
0.38022393 0.038517192 0.039006114
0.38021857 0.03865245 0.040108681
0.38032144 0.039494902 0.041350007
0.38028795 0.039622366 0.042412996
0.38136202 0.038262486 0.041607857
0.37855062 0.040773917 0.038288873
0.37984735 0.04046461 0.038508415
0.3790918 0.041772157 0.038625598
0.37814236 0.043031946 0.038489342
0.37839451 0.040438622 0.039379954
0.37873125 0.040181309 0.042589545
0.37958956 0.04012616 0.041498423
0.38165522 0.041598141 0.040877223
0.38115937 0.042967319 0.041332364
0.38194209 0.043840572 0.042356372
0.38214058 0.036688671 0.039304137
0.38208085 0.03803429 0.039223433
0.38362879 0.036591902 0.040150046
0.38376635 0.036563531 0.042549014
0.38344252 0.039060116 0.041010857
0.38433391 0.037791625 0.041075468
0.38222831 0.040247947 0.040523171
0.38286155 0.043596193 0.042455554
0.38383269 0.042686969 0.042624831
0.38344285 0.043879211 0.041557014
0.38356465 0.04329817 0.042271733
0.38457131 0.042059258 0.042488813
0.38565427 0.040840775 0.042806983
0.38565731 0.042062044 0.041701078
0.38554773 0.041672628 0.04229629
0.3849678 0.043924004 0.040790677
0.38577592 0.043652289 0.040745974
0.38483018 0.042667523 0.041720271
0.38427323 0.04266268 0.042096019
0.38437781 0.043503541 0.041493416
0.38550431 0.042701676 0.041498661
0.38525569 0.043317601 0.041170597
0.3809377 0.039107233 0.043264151
0.38020921 0.039873913 0.04452014
0.3818624 0.039477095 0.045576811
0.37830126 0.0400704 0.04754436
0.37932593 0.0395827 0.048328161
0.37903458 0.03971222 0.049597383
0.37872714 0.039769977 0.05029583
0.38000119 0.039143473 0.049756885
0.38079506 0.039072812 0.048591971
0.38073665 0.039735287 0.048513889
0.38124859 0.038915768 0.04698205
0.38149214 0.038774893 0.048400879
0.38113296 0.039699852 0.047930121
0.38057652 0.038814828 0.049407542
0.38123953 0.038508207 0.049172282
0.37817007 0.040175721 0.04296267
0.37886834 0.040755883 0.047179341
0.37832934 0.0417725 0.047575533
0.3796134 0.040265054 0.048150182
0.38391733 0.037418544 0.043852448
0.38324481 0.037932023 0.048488498
0.38284931 0.037766226 0.050172448
0.38380206 0.03685829 0.05031836
0.38341534 0.037705511 0.049261808
0.38350087 0.037457541 0.049923897
0.38231903 0.038509905 0.048379421
0.38238794 0.038123354 0.050668836
0.38392556 0.038781881 0.049375176
0.38569349 0.036117375 0.048390508
0.38452458 0.036837548 0.049612403
0.3849982 0.03635183 0.050781727
0.38444805 0.037425727 0.048960805
0.3854562 0.03619419 0.049181104
0.3852886 0.036288857 0.05006206
0.38402694 0.042057559 0.042880893
0.38326937 0.042680532 0.042992234
0.38456267 0.041446656 0.043032229
0.38550046 0.040440571 0.043343585
0.37877727 0.04468286 0.040425181
0.37990403 0.045639291 0.041896701
0.37864709 0.047866236 0.040616512
0.37991685 0.046868369 0.040803909
0.3796587 0.047484532 0.04046464
0.37859187 0.046625629 0.041653913
0.37841439 0.047444165 0.041051149
0.37962034 0.04658819 0.041523457
0.38066351 0.044335946 0.041787148
0.3809793 0.045092598 0.042198777
0.38058227 0.045673579 0.041677833
0.38180768 0.04482501 0.042178035
0.38144141 0.045686163 0.041142702
0.38054985 0.046891347 0.040525317
0.38036931 0.0475263 0.040287495
0.38150296 0.046926759 0.040112853
0.38123643 0.047606289 0.040316105
0.38067919 0.046310037 0.041249812
0.38165694 0.046351671 0.04087019
0.37899452 0.049910724 0.038480878
0.38001645 0.049896851 0.037601352
0.37945259 0.049481329 0.038342595
0.37898761 0.050588667 0.038470387
0.37983167 0.050661683 0.038467407
0.37957186 0.051343381 0.038680077
0.38067585 0.049925655 0.037356615
0.38083279 0.049414396 0.038673997
0.38165337 0.04948239 0.03864193
0.38070041 0.050740749 0.038497806
0.38079804 0.05144313 0.038624406
0.38159233 0.050825447 0.038559198
0.37864193 0.048661843 0.039684892
0.37839338 0.049621172 0.039357394
0.37962151 0.048703074 0.039305091
0.37953031 0.048132464 0.040295124
0.37845242 0.0505898 0.038878322
0.37840223 0.051753148 0.039179366
0.3794027 0.052046537 0.03901124
0.38070244 0.048834234 0.039613247
0.38060611 0.048197314 0.04004252
0.3815639 0.048573047 0.039635301
0.38270289 0.045731582 0.040581763
0.38367161 0.045363236 0.040561914
0.38258654 0.044817992 0.041538954
0.38252544 0.044530153 0.042012811
0.38273859 0.045128226 0.041183949
0.38368678 0.044551283 0.041322231
0.38265562 0.046602651 0.040333468
0.38238806 0.047690064 0.040164828
0.38352489 0.04675287 0.039997041
0.38336146 0.047730476 0.039780498
0.38477927 0.044555381 0.04054153
0.38452244 0.045509174 0.040202022
0.38555294 0.044613898 0.040450811
0.38542399 0.045598961 0.040279567
0.38430148 0.044570327 0.041022062
0.38436007 0.046486616 0.039986968
0.38452065 0.047816388 0.039641559
0.38439912 0.047174364 0.040037274
0.38582563 0.046582386 0.039697766
0.38515574 0.046549931 0.039924979
0.38513464 0.047222793 0.03989625
0.38237309 0.048638657 0.039588928
0.38293493 0.049662024 0.039216399
0.38339326 0.048598986 0.039451163
0.37034303 0.039553523 0.054796457
0.37057358 0.03778068 0.056734443
0.37160051 0.037836432 0.056416273
0.37058342 0.037308887 0.058380246
0.37179512 0.037343875 0.057756066
0.37115717 0.037318245 0.058027029
0.37086266 0.039005801 0.055465102
0.37116373 0.038403869 0.055853844
0.37182242 0.039450184 0.055603623
0.37257999 0.037880383 0.056038499
0.37364891 0.037676208 0.056322098
0.37258643 0.03686741 0.058771491
0.37265909 0.037358843 0.057231069
0.37353939 0.036837265 0.057818413
0.37356886 0.036574639 0.058401287
0.37257263 0.038555458 0.056025684
0.3726297 0.03951782 0.055549443
0.37360895 0.038613632 0.055721402
0.37332076 0.039218053 0.055348277
0.37063998 0.040305153 0.055173159
0.37174106 0.040445492 0.055494308
0.37331849 0.04367286 0.05858767
0.37451768 0.037624907 0.056167323
0.37547144 0.03685154 0.056489229
0.37555155 0.037660416 0.055680156
0.37431616 0.036830358 0.057182848
0.37460214 0.036294863 0.058096647
0.37529463 0.036266617 0.057353735
0.37423635 0.038636491 0.055437565
0.37466514 0.039420724 0.055985332
0.37519777 0.038743481 0.055583358
0.37704414 0.036910802 0.055788517
0.37659672 0.03659527 0.056303799
0.37693483 0.037559107 0.055644751
0.37782353 0.036634855 0.055703759
0.37737787 0.036319762 0.056221247
0.37619823 0.036292106 0.056881905
0.37608856 0.038156673 0.055642486
0.37779891 0.039263755 0.057840705
0.37768137 0.040043384 0.058773994
0.37718117 0.040463194 0.05157876
0.37756014 0.040826619 0.05425477
0.3744483 0.040176779 0.056792259
0.37481982 0.041078806 0.058352947
0.37504685 0.042219624 0.056463122
0.37448466 0.043564171 0.056823015
0.3747319 0.042949781 0.05714345
0.37474012 0.043084174 0.05824101
0.37412179 0.043738693 0.058530927
0.37523502 0.042399108 0.057792425
0.37765729 0.041118786 0.056561112
0.3764351 0.041756064 0.057162285
0.37636036 0.041870683 0.058153749
0.3777709 0.041280866 0.057795882
0.37747908 0.041341543 0.058507681
0.37161869 0.036826022 0.059163034
0.3729257 0.036277264 0.059208751
0.3735584 0.036301911 0.058932662
0.37090087 0.04293026 0.059839725
0.37050718 0.043640539 0.060417175
0.37192607 0.043857157 0.061143398
0.3733232 0.041781217 0.059688926
0.37268564 0.043714851 0.059405327
0.37217754 0.04378742 0.06038177
0.37363735 0.042600013 0.06062907
0.37398356 0.04316178 0.059442401
0.37351665 0.043244645 0.060471058
0.37280989 0.043268323 0.061192513
0.37418318 0.041861743 0.0597049
0.37576073 0.041987628 0.059556007
0.37518114 0.041976586 0.059898019
0.37464607 0.042650938 0.060293913
0.37439036 0.043130025 0.058878303
0.37520286 0.042590074 0.059380114
0.3754192 0.043926239 0.059108377
0.37704808 0.040693089 0.059043407
0.3763186 0.041656211 0.059188068
0.37711889 0.041385129 0.059131265
0.37157452 0.048005506 0.050878644
0.37087393 0.046039224 0.05761838
0.37051535 0.045744702 0.058247209
0.37176934 0.045857769 0.057316542
0.37127376 0.04546079 0.058132648
0.3704617 0.046550125 0.05654484
0.37250072 0.046043307 0.056440592
0.37306851 0.046050921 0.056080937
0.37253788 0.044625528 0.058668911
0.3726669 0.045538872 0.057743311
0.37317497 0.044987753 0.058397055
0.3737393 0.045604266 0.057487667
0.37083077 0.048633769 0.051012397
0.37061217 0.050000846 0.051271319
0.37168401 0.048709318 0.051016331
0.37157589 0.050038069 0.050871253
0.37072471 0.050704911 0.051412582
0.37040424 0.051433668 0.052089453
0.37158298 0.050716966 0.050877213
0.37141699 0.051757004 0.051205397
0.3729921 0.048894212 0.051606536
0.37360603 0.04891251 0.05130446
0.37350443 0.049629264 0.051717043
0.37354198 0.050314724 0.051762462
0.37345421 0.051034153 0.05219245
0.37396622 0.051831737 0.052848458
0.37517387 0.045214653 0.058787227
0.37646163 0.044593662 0.058271289
0.37638491 0.045249075 0.058169603
0.37422085 0.049607709 0.051000834
0.37435704 0.050654925 0.051172197
0.37472582 0.051482879 0.052191079
0.37500256 0.051950246 0.053092003
0.37055314 0.044871166 0.059385061
0.37078857 0.044318952 0.060230613
0.37162471 0.044598833 0.059128761
0.37375844 0.044455767 0.059147358
0.37485552 0.044593543 0.059467554
0.37459296 0.045203507 0.059127808
0.37641448 0.044844866 0.060381293
0.37609053 0.045308039 0.058877707
0.37750667 0.044981793 0.060698509
0.3784461 0.039834291 0.051027775
0.3783893 0.039954931 0.052049518
0.37986362 0.039514869 0.052866459
0.38086957 0.038822204 0.051983237
0.38061506 0.039434001 0.051650763
0.38008785 0.039436236 0.052062392
0.38156846 0.038457513 0.051247776
0.38178211 0.038241774 0.052074552
0.38088107 0.03896074 0.053093076
0.38093448 0.039109752 0.054255962
0.38011742 0.039713949 0.054288507
0.38180286 0.038383082 0.053196669
0.37862009 0.036363468 0.05564177
0.37986207 0.036543995 0.05615449
0.37940669 0.037239507 0.056654215
0.37886709 0.037913412 0.057045102
0.38000631 0.03982082 0.055236697
0.37842959 0.038613066 0.057567358
0.37993336 0.040071845 0.057323217
0.38096869 0.039253712 0.055392623
0.38011789 0.03998369 0.056471825
0.38191134 0.038817823 0.056614995
0.38118482 0.039443478 0.056763053
0.38070172 0.039591342 0.058317542
0.38190049 0.038950503 0.057690978
0.3817212 0.038703576 0.058549583
0.38110936 0.039559394 0.057755232
0.3786546 0.04015632 0.053486466
0.37898284 0.040507644 0.056093812
0.37909853 0.040402323 0.055152416
0.37863168 0.040620856 0.057274938
0.3784861 0.040785387 0.058719277
0.37945309 0.040152714 0.058336437
0.38302702 0.037610084 0.051502466
0.38283318 0.037697226 0.052346826
0.38367236 0.036962256 0.051247478
0.38371927 0.037111282 0.052405357
0.38267362 0.03779301 0.053234696
0.38276988 0.037953854 0.054453969
0.38371521 0.037247121 0.053495646
0.3834573 0.037317887 0.054254889
0.38223213 0.038627952 0.054847121
0.38471258 0.036415979 0.051507354
0.38434154 0.036458105 0.052120924
0.38431257 0.036588013 0.053179502
0.38459998 0.036798939 0.054647923
0.38516128 0.036131263 0.054285884
0.38278151 0.038092941 0.0555619
0.38367546 0.037510231 0.05563128
0.38359076 0.037625015 0.056613326
0.38274759 0.037144929 0.058793902
0.3836261 0.03655982 0.05884409
0.38360977 0.037766129 0.057728529
0.38357997 0.037400369 0.058417995
0.38216454 0.038746491 0.055851698
0.38288179 0.038322397 0.057328403
0.38237411 0.03839691 0.05830586
0.38462779 0.037011459 0.056323469
0.38544577 0.036341891 0.055749655
0.38525182 0.036429286 0.056590199
0.38452858 0.036586121 0.058378875
0.3842355 0.037116066 0.057451725
0.38510025 0.03652747 0.057484865
0.37977785 0.039627776 0.059301376
0.38061923 0.039031669 0.059301496
0.38039923 0.039649785 0.059015155
0.38127825 0.038726553 0.0590657
0.37840736 0.040495567 0.059162676
0.38249817 0.03782288 0.059013307
0.37358791 0.055770397 0.040263176
0.3720063 0.057999671 0.037091374
0.37209123 0.056657672 0.037206054
0.37210333 0.057341248 0.037219763
0.37405935 0.057577908 0.040870845
0.37387085 0.058552921 0.040622473
0.37458789 0.053753845 0.042673945
0.37601507 0.054048017 0.041219115
0.3755323 0.055632167 0.04058522
0.37599933 0.054723129 0.041196585
0.3779164 0.05275698 0.040387034
0.3761338 0.052718237 0.041377664
0.37616497 0.053404495 0.041416407
0.37739035 0.052484829 0.041359484
0.37794018 0.053568944 0.041521788
0.37751353 0.053595573 0.042069674
0.37767404 0.054650553 0.042276084
0.3777256 0.055679485 0.042340517
0.37465715 0.057805866 0.039438486
0.37504274 0.057215869 0.039942741
0.37531871 0.056600839 0.040304184
0.37418592 0.056588724 0.041038632
0.37493831 0.059476465 0.0420084
0.37594366 0.058781192 0.041112185
0.37567264 0.059521034 0.041860819
0.37779087 0.056711227 0.042422771
0.37775022 0.057718143 0.042366862
0.37759683 0.061807737 0.042706907
0.37711126 0.064465776 0.042617321
0.37776494 0.060677141 0.044581771
0.37780559 0.061239898 0.043531775
0.3772012 0.0612863 0.044396281
0.37721771 0.060675159 0.044970036
0.37799716 0.062636197 0.043777347
0.37571311 0.068014666 0.045189023
0.37645406 0.065356702 0.045061588
0.3763864 0.066693097 0.04496932
0.37680078 0.067460239 0.045505285
0.37780911 0.066889137 0.045719743
0.37852547 0.05270943 0.039523065
0.37865376 0.053482607 0.040242672
0.37937772 0.052719593 0.038976908
0.37938729 0.053464688 0.03954196
0.37833065 0.053533763 0.040926456
0.37902534 0.054121539 0.03962028
0.37886757 0.05455067 0.040519834
0.37954682 0.054117262 0.039195538
0.37938976 0.054885834 0.040095568
0.37908429 0.055618882 0.040800691
0.37830067 0.054607674 0.041437149
0.37863356 0.055639595 0.041316986
0.37833953 0.055697024 0.042037606
0.38047621 0.052357297 0.038939875
0.38024896 0.055765584 0.041218519
0.37866485 0.056324795 0.041355968
0.37836716 0.056719892 0.042070866
0.37939614 0.056369662 0.041206717
0.37929106 0.057148322 0.042172313
0.37899011 0.057880685 0.042881131
0.37843794 0.058554471 0.043261647
0.37878698 0.060111746 0.044814229
0.37979454 0.059543759 0.045028567
0.38186532 0.059649214 0.044428587
0.38099957 0.059022158 0.045501947
0.38090456 0.059675574 0.045375943
0.3816492 0.058372721 0.045251012
0.38175732 0.059410796 0.045389712
0.38280898 0.057842284 0.045667291
0.38260007 0.059694737 0.044287562
0.38348997 0.059438728 0.044351041
0.38243353 0.059105247 0.045173168
0.38358638 0.058635473 0.046131968
0.38319182 0.059156433 0.045063496
0.38440761 0.057752535 0.046658456
0.38565588 0.05779364 0.046091795
0.38456544 0.059563234 0.044658005
0.3845436 0.058670849 0.045733452
0.3854385 0.058691792 0.045253754
0.38508552 0.058122709 0.046444774
0.38582003 0.059392408 0.045201898
0.38573438 0.056926534 0.047297597
0.38565528 0.057581842 0.047192454
0.37856621 0.061505996 0.042318046
0.37950885 0.061597995 0.04244566
0.38030988 0.061319694 0.04238987
0.37889946 0.060690314 0.043857813
0.37838674 0.06069617 0.044290781
0.37814754 0.061195001 0.042875528
0.37948936 0.060702056 0.043525457
0.37973619 0.060206085 0.044950724
0.37865251 0.062662661 0.043530226
0.3787415 0.064034775 0.043642402
0.37916064 0.062655717 0.043091059
0.37939268 0.063505933 0.044493318
0.38048711 0.060745664 0.043174922
0.38061586 0.060222797 0.044446886
0.38153282 0.060524151 0.043440104
0.38061225 0.062862888 0.043884397
0.38016194 0.063558146 0.044396162
0.38141727 0.06224817 0.043836236
0.38053834 0.065113813 0.045983315
0.38140905 0.065922901 0.046567619
0.38224488 0.06028825 0.043821096
0.3824681 0.061690003 0.044110179
0.38319349 0.060382873 0.043960571
0.38418943 0.061286539 0.045263648
0.38521928 0.063786581 0.048805594
0.38208467 0.064666554 0.046903491
0.38268459 0.065414764 0.047135532
0.38395831 0.06463144 0.048252642
0.38464692 0.064941801 0.047504783
0.38542786 0.064445622 0.048527896
0.37073222 0.052187935 0.052506804
0.37165874 0.052829258 0.051511526
0.37114733 0.052898884 0.052491188
0.3718431 0.053612277 0.052290916
0.37071007 0.052922577 0.053020239
0.37141427 0.053700954 0.053375423
0.37180644 0.054279834 0.05224061
0.37040532 0.055681244 0.053705335
0.37192076 0.054432362 0.053477407
0.37146401 0.054451272 0.05398047
0.3720113 0.055129066 0.053590298
0.37159073 0.05515632 0.054139614
0.37280297 0.053711385 0.052433729
0.37401426 0.052518785 0.052907228
0.37222844 0.055054337 0.052779555
0.37245452 0.055782571 0.05306685
0.37228703 0.055931009 0.054485321
0.37316728 0.054472506 0.052899003
0.37331176 0.055181712 0.053081989
0.37402391 0.056022674 0.053994536
0.37088829 0.05646874 0.054320693
0.37130874 0.057240993 0.054855943
0.37252438 0.056474164 0.053153396
0.37220725 0.056587458 0.054379642
0.37301934 0.057263792 0.053786159
0.37273344 0.057659127 0.054506063
0.37318683 0.05797717 0.053998232
0.37365401 0.058759019 0.054595351
0.37153935 0.057968885 0.055148005
0.37237579 0.057363287 0.055136442
0.37256303 0.058571432 0.055733323
0.3728593 0.059619591 0.056832314
0.37307572 0.058749527 0.054940462
0.37352335 0.059526101 0.055511832
0.37341893 0.059624895 0.056464195
0.37472796 0.053362548 0.053822875
0.37524247 0.052682295 0.053398132
0.37578684 0.05557166 0.054632545
0.37463564 0.056839228 0.054778218
0.37496394 0.057589203 0.055197239
0.37576678 0.056640312 0.055146515
0.37450534 0.05962801 0.055685997
0.37541842 0.058367714 0.055778503
0.37647408 0.059956074 0.057130098
0.37160271 0.060129136 0.05630517
0.37191391 0.062341601 0.057777166
0.37358153 0.060213089 0.055583239
0.37359753 0.060747176 0.056325834
0.37366459 0.061639786 0.056226492
0.37244433 0.060993984 0.057378888
0.37271821 0.061729103 0.057726026
0.37309062 0.060682319 0.057123721
0.37318903 0.061714292 0.057244658
0.37349197 0.062671013 0.056542993
0.3736279 0.063710928 0.056712389
0.37279528 0.062419325 0.057821155
0.37229353 0.063099831 0.05825913
0.3727473 0.063753933 0.057752728
0.37264466 0.063454762 0.058165014
0.37316507 0.06271819 0.057208896
0.37311614 0.063716441 0.057141066
0.37174016 0.064441159 0.058627367
0.37108237 0.065759063 0.058861971
0.37279052 0.065108612 0.057801247
0.37268564 0.064472608 0.058212161
0.3728416 0.065792263 0.057863116
0.37242147 0.065481916 0.058410347
0.37342873 0.064643189 0.057175756
0.37328339 0.065771341 0.057345152
0.37272042 0.066437721 0.057704568
0.37230319 0.066464067 0.058253765
0.37281185 0.06746611 0.057816505
0.37233016 0.067478143 0.058282912
0.37338245 0.066465527 0.057468772
0.37390512 0.067252845 0.058135033
0.37516785 0.06045258 0.056533933
0.37589201 0.061626174 0.057459593
0.374192 0.062371477 0.056357145
0.37502098 0.063230962 0.057418108
0.37589723 0.064099729 0.05853951
0.37651271 0.060637265 0.057176709
0.37439018 0.065226033 0.057683349
0.37194967 0.065160125 0.058891296
0.37036198 0.067063183 0.059016705
0.37152475 0.066528976 0.059422851
0.37157914 0.067943417 0.060025334
0.37212574 0.065871328 0.059112668
0.37208432 0.066534147 0.059056163
0.38635015 0.036813051 0.042620778
0.38795209 0.038982064 0.042511344
0.38758934 0.039635569 0.042586505
0.3885096 0.036548402 0.042510312
0.38839582 0.037671715 0.042543769
0.38961545 0.036762208 0.0424909
0.38975012 0.037674993 0.041558027
0.38919127 0.037669271 0.041929722
0.38843846 0.038563196 0.042414188
0.38841075 0.039639711 0.042006612
0.38953605 0.038795263 0.041644294
0.38930178 0.038375184 0.042075038
0.38990188 0.039746135 0.041756988
0.38916397 0.039694861 0.041891575
0.38646448 0.040638655 0.042396266
0.38661048 0.042099006 0.041293144
0.38665807 0.041500747 0.041911125
0.38758928 0.0408547 0.041476011
0.38734153 0.040250242 0.042259216
0.38754368 0.041520908 0.041415036
0.38655898 0.04371348 0.040668368
0.38742125 0.04345578 0.040696383
0.38650882 0.042751357 0.041158378
0.38762718 0.042490847 0.040969253
0.38860753 0.040502191 0.041525882
0.3885178 0.041563436 0.041036248
0.38970539 0.040712021 0.041496396
0.38925713 0.041614547 0.040902972
0.38834202 0.042535491 0.040803015
0.38825053 0.04352881 0.040681124
0.38913274 0.042937934 0.040737271
0.3896181 0.042382807 0.041379571
0.39039108 0.038718089 0.041294515
0.39060473 0.039788574 0.041576624
0.39220577 0.039383829 0.042586446
0.39047784 0.040433377 0.041408062
0.39044762 0.041441269 0.041367352
0.38699651 0.037656903 0.043470502
0.38771483 0.036687024 0.043309927
0.3876037 0.037674993 0.043162227
0.38666058 0.038746241 0.043395836
0.38653249 0.039639823 0.04341042
0.38749102 0.038662598 0.043012381
0.38822955 0.037020281 0.042879581
0.39083499 0.037276998 0.042992949
0.39197946 0.036895886 0.04450655
0.39202696 0.038122594 0.043460011
0.3863439 0.044676766 0.040383577
0.38642237 0.045712925 0.04048574
0.38724047 0.044427209 0.040456653
0.38718396 0.045429528 0.040380836
0.38823116 0.044201374 0.040654898
0.39377856 0.051032431 0.048527777
0.39351737 0.051641241 0.048182189
0.39266565 0.051693551 0.049261808
0.39351019 0.050670564 0.0494591
0.3993156 0.038914487 0.049799681
0.40002155 0.039768502 0.050736189
0.40169558 0.037576601 0.050753534
0.4009409 0.038525745 0.050854087
0.40077919 0.039491095 0.050639093
0.40172592 0.038522601 0.050241828
0.40172482 0.039796472 0.049688101
0.4014782 0.039376687 0.050096434
0.39994168 0.040755212 0.050629854
0.39980108 0.041726366 0.050442934
0.39869112 0.042989783 0.050624311
0.39897376 0.043665394 0.050447345
0.40004754 0.042996526 0.049666405
0.39946762 0.042581793 0.050367713
0.39997226 0.043648839 0.04956615
0.399427 0.043645471 0.049945831
0.40097928 0.040748604 0.049800932
0.40048331 0.040757798 0.050245762
0.40080625 0.041711479 0.049570799
0.40025604 0.041706771 0.049943566
0.40152043 0.040751047 0.049416304
0.40164417 0.0417898 0.049580932
0.40056288 0.04258981 0.049615264
0.40098333 0.043770254 0.049805999
0.40190941 0.048860013 0.035483479
0.40172094 0.049488336 0.035230517
0.40077391 0.051749647 0.035079181
0.40114272 0.050827667 0.035574079
0.3958348 0.048046485 0.050145566
0.39747661 0.044898987 0.050667524
0.39760619 0.04553622 0.050287664
0.39689988 0.047980472 0.048799276
0.39672595 0.046792336 0.050223589
0.39653221 0.047685519 0.049415469
0.39619797 0.04739888 0.050075531
0.39768079 0.046563163 0.049467165
0.3972218 0.046178102 0.050329328
0.39761841 0.047622725 0.049016237
0.39553127 0.049610015 0.048456948
0.39467707 0.049662098 0.049532216
0.39466077 0.049297392 0.050245047
0.39570189 0.048619598 0.049418449
0.3952145 0.048630804 0.049875975
0.39538485 0.04921338 0.048998713
0.39453411 0.050616708 0.048240107
0.39446402 0.051676691 0.047778845
0.39559788 0.050478786 0.048176646
0.39670795 0.048604831 0.048544645
0.3968181 0.04930371 0.048690081
0.39611804 0.048590764 0.04886663
0.39619404 0.051295981 0.048964977
0.3978892 0.050238103 0.050108433
0.39838368 0.044590659 0.050215989
0.39865473 0.045532204 0.049471915
0.39950556 0.044605177 0.049498022
0.39872622 0.046423066 0.049382687
0.40083903 0.051909983 0.050715327
0.40178525 0.051816493 0.049216688
0.40161586 0.051480409 0.050278384
0.40181762 0.036601305 0.050915837
0.39949131 0.041111737 0.051134825
0.39943409 0.041768447 0.05105865
0.39846408 0.043671012 0.050874114
0.40122092 0.045975998 0.051224232
0.40102315 0.048068881 0.052062273
0.39998657 0.051961303 0.051785946
0.39944938 0.051625125 0.052174151
0.40038109 0.050049871 0.052310109
0.4016695 0.048832864 0.052369654
0.40175053 0.050060183 0.051375926
0.40147772 0.04969959 0.052298229
0.40073612 0.050741173 0.052230418
0.40050212 0.051622778 0.051369369
0.40020943 0.051346406 0.052081704
0.40161726 0.050696716 0.051198661
0.40110987 0.051306754 0.05107522
0.38852668 0.055732265 0.046560168
0.38931647 0.055455931 0.046497345
0.38782007 0.055818439 0.047834396
0.3886075 0.055387069 0.047401547
0.38807172 0.055204779 0.048165917
0.38942298 0.054662183 0.048291147
0.38675904 0.056915492 0.046439409
0.38640168 0.057688508 0.045601368
0.38787431 0.056925729 0.045700073
0.38762376 0.056656055 0.046473682
0.38792574 0.057611629 0.045766592
0.38666576 0.058116093 0.045212269
0.38715929 0.05890511 0.045859337
0.38843656 0.056384549 0.046440601
0.38916934 0.05643113 0.04630208
0.38930506 0.057136416 0.046479702
0.38663241 0.05667489 0.047374904
0.38734162 0.056378901 0.04720521
0.39015114 0.055526927 0.046493709
0.390515 0.053994656 0.047526419
0.39048257 0.053778447 0.048585534
0.39182019 0.052898407 0.048696518
0.39147648 0.05362701 0.04750796
0.39052594 0.053516507 0.049193263
0.39171571 0.052601367 0.049109757
0.3919695 0.052390859 0.049994349
0.39038983 0.054637745 0.047360659
0.39137262 0.054680884 0.047002077
0.39181697 0.05545938 0.047587156
0.39268219 0.052848727 0.047629476
0.3925651 0.052458044 0.048210222
0.39249355 0.053475887 0.047379732
0.39353964 0.052590512 0.047659278
0.3926729 0.054191411 0.047615647
0.39137894 0.056826726 0.048109412
