# .PCD v0.7 - Point Cloud Data file format
VERSION 0.7
FIELDS x y z rgb
SIZE 4 4 4 4
TYPE F F F F
COUNT 1 1 1 1
WIDTH 1274
HEIGHT 1
VIEWPOINT 0 0 0 1 0 0 0
POINTS 1274
DATA ascii
0.269177 0.104156 0.0159777 16711680
0.268234 0.104697 0.0148617 16711680
0.267151 0.105214 0.0135764 16711680
0.266813 0.105864 0.0131923 16711680
0.266904 0.106589 0.0133263 16711680
0.26665 0.107255 0.0130441 16711680
0.266466 0.107932 0.0128452 16711680
0.266452 0.108639 0.0128523 16711680
0.267491 0.109529 0.0141338 16711680
0.268718 0.11045 0.0156417 16711680
0.268914 0.111192 0.0159023 16711680
0.268552 0.111837 0.0154892 16711680
0.268343 0.112509 0.0152603 16711680
0.274517 0.0317647 0.0187268 16711680
0.273645 0.0322642 0.0176966 16711680
0.273125 0.0328524 0.0170923 16711680
0.272679 0.0334596 0.0165778 16711680
0.27161 0.0339126 0.0153071 16711680
0.270972 0.034474 0.0145609 16711680
0.270766 0.0351425 0.0143374 16711680
0.270875 0.0358886 0.014496 16711680
0.270945 0.036625 0.0146074 16711680
0.271597 0.0375035 0.0154246 16711680
0.272489 0.0384395 0.0165328 16711680
0.272624 0.0391898 0.0167224 16711680
0.27202 0.0397609 0.0160166 16711680
0.271441 0.0403386 0.0153408 16711680
0.270871 0.0409192 0.0146761 16711680
0.269944 0.0414145 0.0135776 16711680
0.269673 0.0420685 0.0132756 16711680
0.269652 0.0427824 0.0132768 16711680
0.269578 0.0434835 0.0132129 16711680
0.269875 0.0442728 0.0135998 16711680
0.269989 0.0450181 0.0137638 16711680
0.270386 0.0458301 0.0142716 16711680
0.270555 0.0465877 0.0145032 16711680
0.27062 0.0473206 0.0146083 16711680
0.272067 0.0483765 0.0163882 16711680
0.272077 0.0490951 0.016427 16711680
0.271852 0.0497587 0.0161793 16711680
0.271687 0.0504366 0.0160058 16711680
0.271536 0.0511178 0.0158488 16711680
0.271348 0.0517906 0.0156471 16711680
0.271171 0.0524659 0.015458 16711680
0.270896 0.0531191 0.0151513 16711680
0.26999 0.0536283 0.0140789 16711680
0.269896 0.0543236 0.0139905 16711680
0.269656 0.0549858 0.0137261 16711680
0.269432 0.0556518 0.0134804 16711680
0.269302 0.0563392 0.0133491 16711680
0.270689 0.0573677 0.0150551 16711680
0.271876 0.0583495 0.0165198 16711680
0.271968 0.0590849 0.0166581 16711680
0.271722 0.0597444 0.0163853 16711680
0.271517 0.0604134 0.0161623 16711680
0.271342 0.0610891 0.0159762 16711680
0.27108 0.0617458 0.015684 16711680
0.270995 0.0624417 0.0156069 16711680
0.270915 0.0631388 0.015536 16711680
0.270673 0.0638002 0.0152676 16711680
0.270249 0.0644224 0.0147804 16711680
0.270385 0.0651665 0.0149699 16711680
0.270008 0.0657994 0.014539 16711680
0.269868 0.0664838 0.014395 16711680
0.269607 0.0671423 0.0141045 16711680
0.26937 0.0678061 0.0138427 16711680
0.269514 0.0685515 0.0140421 16711680
0.269643 0.0692935 0.0142242 16711680
0.269394 0.0699549 0.013948 16711680
0.268902 0.0705652 0.0133779 16711680
0.268967 0.0712933 0.0134816 16711680
0.269085 0.0720325 0.0136497 16711680
0.268875 0.0727027 0.0134212 16711680
0.268519 0.0733425 0.0130149 16711680
0.268451 0.0740429 0.0129588 16711680
0.26825 0.0747154 0.0127405 16711680
0.268198 0.0754189 0.0127022 16711680
0.269876 0.0764789 0.0147609 16711680
0.271898 0.077607 0.0172348 16711680
0.271499 0.0782368 0.0167769 16711680
0.271227 0.0788929 0.0164728 16711680
0.270994 0.0795571 0.0162154 16711680
0.270838 0.0802372 0.016052 16711680
0.270826 0.0809464 0.016062 16711680
0.270447 0.0815817 0.015628 16711680
0.270386 0.0822812 0.0155795 16711680
0.270893 0.0830941 0.0162188 16711680
0.271031 0.0838328 0.0164112 16711680
0.270474 0.0844333 0.015762 16711680
0.270427 0.0851351 0.0157294 16711680
0.270556 0.0858716 0.0159104 16711680
0.270491 0.0865699 0.0158573 16711680
0.270417 0.0872663 0.0157926 16711680
0.27053 0.087999 0.0159539 16711680
0.270687 0.0887401 0.0161692 16711680
0.270609 0.0894355 0.0161 16711680
0.270487 0.0901222 0.0159768 16711680
0.270505 0.0908358 0.0160229 16711680
0.270482 0.0915417 0.0160207 16711680
0.270384 0.0922331 0.0159266 16711680
0.270191 0.0929064 0.0157179 16711680
0.269846 0.0935509 0.0153241 16711680
0.269696 0.0942329 0.0151678 16711680
0.269065 0.0948244 0.0144286 16711680
0.268853 0.0954951 0.0141959 16711680
0.268699 0.0961769 0.0140345 16711680
0.268455 0.096842 0.0137637 16711680
0.268478 0.0975569 0.0138168 16711680
0.268481 0.0982679 0.0138452 16711680
0.268649 0.0990089 0.0140724 16711680
0.268979 0.0997795 0.0144972 16711680
0.269275 0.100543 0.0148801 16711680
0.269852 0.101357 0.0156026 16711680
0.270118 0.102114 0.0159496 16711680
0.270368 0.102868 0.0162768 16711680
0.270337 0.103571 0.016263 16711680
0.270448 0.104299 0.0164216 16711680
0.270073 0.10494 0.0159926 16711680
0.269597 0.105564 0.0154411 16711680
0.268239 0.106032 0.013821 16711680
0.267746 0.106654 0.0132493 16711680
0.26794 0.107398 0.013508 16711680
0.267686 0.108063 0.0132259 16711680
0.26769 0.108773 0.013255 16711680
0.2679 0.109518 0.0135328 16711680
0.268647 0.110356 0.014461 16711680
0.269334 0.111182 0.015317 16711680
0.269399 0.111901 0.0154197 16711680
0.269024 0.112545 0.0149904 16711680
0.274636 0.0316751 0.017771 16711680
0.274076 0.0322526 0.0171175 16711680
0.273956 0.0329407 0.0169988 16711680
0.273315 0.0334991 0.0162473 16711680
0.272476 0.034009 0.015255 16711680
0.271474 0.0344798 0.0140659 16711680
0.271291 0.035154 0.0138702 16711680
0.271481 0.0359202 0.0141277 16711680
0.272157 0.0368053 0.0149754 16711680
0.272565 0.0376234 0.015496 16711680
0.273208 0.0384985 0.0163034 16711680
0.273033 0.0391733 0.0161173 16711680
0.272343 0.0397235 0.0153067 16711680
0.272102 0.0403831 0.0150406 16711680
0.271848 0.0410398 0.0147591 16711680
0.271268 0.0416183 0.0140817 16711680
0.270923 0.0422537 0.0136893 16711680
0.270467 0.0428629 0.0131614 16711680
0.270339 0.0435511 0.0130334 16711680
0.270211 0.0442391 0.0129038 16711680
0.270528 0.0450328 0.013315 16711680
0.270541 0.0457539 0.0133567 16711680
0.270928 0.0465632 0.0138532 16711680
0.272717 0.047701 0.0160503 16711680
0.273056 0.0484966 0.0164881 16711680
0.272725 0.0491351 0.016112 16711680
0.272223 0.0497344 0.0155298 16711680
0.272059 0.0504124 0.0153561 16711680
0.271876 0.0510864 0.015161 16711680
0.271803 0.0517855 0.0150976 16711680
0.27151 0.0524344 0.014769 16711680
0.27094 0.0530199 0.0141027 16711680
0.270814 0.0537076 0.0139761 16711680
0.270332 0.0543143 0.0134176 16711680
0.270209 0.055003 0.0132945 16711680
0.270723 0.0558362 0.0139446 16711680
0.272754 0.0570106 0.0164336 16711680
0.27286 0.0577493 0.0165889 16711680
0.273004 0.0584959 0.0167893 16711680
0.27248 0.0590928 0.016179 16711680
0.272055 0.0597125 0.0156896 16711680
0.271988 0.0604122 0.0156336 16711680
0.271798 0.0610848 0.0154297 16711680
0.271555 0.0617455 0.0151601 16711680
0.270949 0.0623268 0.0144515 16711680
0.27118 0.0630925 0.0147578 16711680
0.2708 0.0637239 0.0143219 16711680
0.270619 0.0643992 0.0141282 16711680
0.270358 0.0650571 0.013837 16711680
0.270311 0.0657618 0.0138057 16711680
0.270186 0.0664497 0.0136808 16711680
0.269779 0.0670767 0.0132121 16711680
0.269847 0.0678062 0.0133201 16711680
0.269727 0.0684953 0.0132006 16711680
0.269902 0.0692471 0.0134376 16711680
0.269823 0.0699448 0.0133678 16711680
0.269435 0.070577 0.0129226 16711680
0.269467 0.0712984 0.0129873 16711680
0.269615 0.0720439 0.0131925 16711680
0.269298 0.0726917 0.0128338 16711680
0.26919 0.0733833 0.0127285 16711680
0.269001 0.0740581 0.0125241 16711680
0.26879 0.0747286 0.0122939 16711680
0.268874 0.0754603 0.0124215 16711680
0.272745 0.0769724 0.0171403 16711680
0.272447 0.0776224 0.0168042 16711680
0.271956 0.0782332 0.016234 16711680
0.271588 0.0788698 0.0158139 16711680
0.271489 0.0795613 0.0157187 16711680
0.271126 0.0801993 0.0153034 16711680
0.270909 0.0808674 0.0150663 16711680
0.270589 0.0815148 0.0147035 16711680
0.270624 0.0822338 0.014771 16711680
0.270922 0.0830051 0.0151575 16711680
0.272033 0.0839378 0.016529 16711680
0.271834 0.0846089 0.0163126 16711680
0.271679 0.0852889 0.0161504 16711680
0.27161 0.0859858 0.0160912 16711680
0.271655 0.0867052 0.0161707 16711680
0.271456 0.0873767 0.0159551 16711680
0.271031 0.0880043 0.0154653 16711680
0.270965 0.0887021 0.0154102 16711680
0.270981 0.0894156 0.0154545 16711680
0.270982 0.0901262 0.0154805 16711680
0.27099 0.090838 0.0155153 16711680
0.270951 0.0915408 0.0154932 16711680
0.271321 0.0923214 0.0159664 16711680
0.271139 0.0929964 0.0157702 16711680
0.270917 0.093664 0.0155257 16711680
0.271384 0.0944619 0.0161164 16711680
0.271147 0.0951267 0.0158546 16711680
0.269999 0.095621 0.0144882 16711680
0.270026 0.0963359 0.014545 16711680
0.269487 0.0969456 0.0139167 16711680
0.26931 0.0976232 0.013728 16711680
0.269125 0.098299 0.0135275 16711680
0.269134 0.099011 0.0135641 16711680
0.269499 0.0997879 0.0140311 16711680
0.269587 0.100514 0.0141624 16711680
0.270114 0.101319 0.0148249 16711680
0.270373 0.102075 0.0151639 16711680
0.270671 0.102838 0.0155497 16711680
0.271135 0.103629 0.0161355 16711680
0.271433 0.104391 0.0165216 16711680
0.271147 0.105047 0.0161994 16711680
0.271095 0.105746 0.0161607 16711680
0.270221 0.106299 0.0151258 16711680
0.269887 0.106948 0.0147465 16711680
0.269169 0.10753 0.0139006 16711680
0.268708 0.108158 0.0133665 16711680
0.268753 0.108875 0.0134456 16711680
0.268552 0.109549 0.0132263 16711680
0.269192 0.110368 0.0140268 16711680
0.270475 0.111297 0.0156043 16711680
0.270915 0.11208 0.0161619 16711680
0.270314 0.112684 0.0154576 16711680
0.269445 0.113244 0.0144304 16711680
0.277265 0.030783 0.0198112 16711680
0.27558 0.031075 0.0177903 16711680
0.275221 0.0317025 0.0173812 16711680
0.274998 0.0323642 0.0171368 16711680
0.274474 0.0329511 0.0165269 16711680
0.273801 0.0335012 0.0157349 16711680
0.273151 0.0340583 0.0149727 16711680
0.272183 0.0345371 0.0138227 16711680
0.271683 0.0351328 0.0132419 16711680
0.272189 0.0359769 0.0138836 16711680
0.273002 0.0368955 0.0148985 16711680
0.272623 0.037521 0.0144645 16711680
0.273237 0.0383892 0.0152366 16711680
0.273451 0.0391591 0.0155232 16711680
0.273025 0.0397732 0.0150321 16711680
0.272873 0.0404543 0.0148747 16711680
0.272541 0.0410919 0.0144979 16711680
0.27204 0.041689 0.0139153 16711680
0.271973 0.042391 0.0138602 16711680
0.271853 0.0430802 0.013741 16711680
0.271483 0.0437099 0.0133182 16711680
0.271263 0.0443758 0.0130782 16711680
0.271056 0.0450447 0.0128524 16711680
0.271019 0.045754 0.0128338 16711680
0.272078 0.0467216 0.0141461 16711680
0.273946 0.0478778 0.0164419 16711680
0.273611 0.048515 0.0160608 16711680
0.272975 0.0490823 0.0153149 16711680
0.272606 0.0497124 0.0148927 16711680
0.272449 0.0503924 0.0147289 16711680
0.272329 0.0510809 0.0146093 16711680
0.272297 0.0517897 0.0145965 16711680
0.272127 0.0524668 0.0144165 16711680
0.271432 0.0530235 0.013599 16711680
0.271125 0.0536697 0.0132518 16711680
0.271437 0.0544575 0.0136571 16711680
0.272925 0.0555119 0.0154898 16711680
0.273749 0.0564136 0.0165163 16711680
0.273657 0.0571073 0.0164313 16711680
0.273492 0.0577843 0.0162559 16711680
0.273291 0.0584535 0.0160381 16711680
0.27275 0.059047 0.0154078 16711680
0.272518 0.0597097 0.0151516 16711680
0.272308 0.0603777 0.0149232 16711680
0.271977 0.0610189 0.0145465 16711680
0.271807 0.0616961 0.0143659 16711680
0.271486 0.0623403 0.0140029 16711680
0.271103 0.0629711 0.0135638 16711680
0.271161 0.0636987 0.0136595 16711680
0.270831 0.0643417 0.0132853 16711680
0.270717 0.0650318 0.0131724 16711680
0.270485 0.0656965 0.0129168 16711680
0.27003 0.0663131 0.0123903 16711680
0.269915 0.0670034 0.0122756 16711680
0.269213 0.0675679 0.0114498 16711680
0.268985 0.0682346 0.0111984 16711680
0.269664 0.069095 0.0120487 16711680
0.269434 0.0697612 0.0117958 16711680
0.268966 0.0703768 0.0112524 16711680
0.26896 0.0710908 0.0112712 16711680
0.269885 0.0720006 0.0124197 16711680
0.269869 0.0727115 0.0124257 16711680
0.26959 0.0733674 0.0121125 16711680
0.26938 0.0740379 0.011883 16711680
0.269069 0.0746877 0.0115316 16711680
0.273046 0.0762252 0.0163838 16711680
0.273754 0.0770828 0.0172684 16711680
0.273278 0.0776957 0.0167155 16711680
0.272356 0.0782179 0.0156221 16711680
0.27219 0.0788957 0.0154464 16711680
0.27181 0.0795301 0.0150107 16711680
0.271501 0.0801792 0.0146612 16711680
0.271037 0.0807973 0.0141233 16711680
0.270965 0.0814948 0.014061 16711680
0.271136 0.0822412 0.0142938 16711680
0.271667 0.0830591 0.0149627 16711680
0.272776 0.0839915 0.0163344 16711680
0.272708 0.0846885 0.0162772 16711680
0.272474 0.0853524 0.0160179 16711680
0.272365 0.0860413 0.0159113 16711680
0.272368 0.0867523 0.01594 16711680
0.272373 0.0874635 0.0159709 16711680
0.271964 0.0880938 0.0154999 16711680
0.271543 0.0887222 0.0150143 16711680
0.271636 0.0894507 0.0151522 16711680
0.271504 0.0901354 0.0150168 16711680
0.271438 0.090833 0.014962 16711680
0.27138 0.0915321 0.0149165 16711680
0.27153 0.0922707 0.0151229 16711680
0.271474 0.0929701 0.0150807 16711680
0.272075 0.0937937 0.015834 16711680
0.2723 0.0945455 0.0161318 16711680
0.272205 0.0952366 0.0160414 16711680
0.272219 0.0959482 0.0160834 16711680
0.272095 0.0966339 0.0159582 16711680
0.271473 0.097227 0.0152285 16711680
0.271095 0.0978661 0.0147953 16711680
0.270245 0.0984183 0.0137888 16711680
0.269604 0.0990102 0.0130366 16711680
0.269979 0.0997889 0.0135157 16711680
0.27008 0.100517 0.0136629 16711680
0.270181 0.101245 0.0138109 16711680
0.270756 0.102059 0.0145327 16711680
0.271064 0.102823 0.0149299 16711680
0.271556 0.10362 0.0155516 16711680
0.271882 0.104386 0.0159714 16711680
0.272219 0.105154 0.0164049 16711680
0.272028 0.105828 0.0161977 16711680
0.271701 0.106477 0.0158263 16711680
0.271374 0.107127 0.0154541 16711680
0.270645 0.107706 0.0145946 16711680
0.270296 0.108353 0.0141962 16711680
0.269589 0.108938 0.0133634 16711680
0.269053 0.109554 0.0127382 16711680
0.26984 0.110399 0.0137168 16711680
0.270385 0.1112 0.0144013 16711680
0.271731 0.112139 0.0160577 16711680
0.271573 0.112818 0.0158901 16711680
0.270902 0.113411 0.0151012 16711680
0.269809 0.113933 0.013801 16711680
0.277297 0.0306707 0.0187495 16711680
0.276394 0.03116 0.0176783 16711680
0.276461 0.0318943 0.017787 16711680
0.275762 0.0324363 0.016964 16711680
0.274944 0.0329494 0.0159957 16711680
0.274033 0.0334402 0.014914 16711680
0.273688 0.034073 0.0145214 16711680
0.272907 0.034598 0.013598 16711680
0.272382 0.0351873 0.0129864 16711680
0.27341 0.0361601 0.0142642 16711680
0.274188 0.0370695 0.0152364 16711680
0.273212 0.0375483 0.0140769 16711680
0.273855 0.0384235 0.0148847 16711680
0.273917 0.0391564 0.0149869 16711680
0.27367 0.0398141 0.0147136 16711680
0.273185 0.0404142 0.0141503 16711680
0.272965 0.041079 0.0139099 16711680
0.272734 0.0417413 0.013656 16711680
0.272501 0.0424033 0.0133991 16711680
0.272518 0.0431251 0.0134456 16711680
0.272412 0.0438178 0.0133439 16711680
0.272485 0.0445529 0.013459 16711680
0.271994 0.0451539 0.0128882 16711680
0.271714 0.0458056 0.0125753 16711680
0.27415 0.0470978 0.0155625 16711680
0.274833 0.0479745 0.0164192 16711680
0.273951 0.0484832 0.0153739 16711680
0.273226 0.0490296 0.0145184 16711680
0.273007 0.049695 0.0142789 16711680
0.27295 0.0503981 0.0142357 16711680
0.272884 0.051099 0.0141814 16711680
0.27264 0.0517588 0.013911 16711680
0.272385 0.0524164 0.0136276 16711680
0.272182 0.0530861 0.0134072 16711680
0.272331 0.0538364 0.0136142 16711680
0.274523 0.0550525 0.016305 16711680
0.274591 0.0557824 0.0164136 16711680
0.274502 0.0564764 0.0163314 16711680
0.274337 0.0571535 0.0161577 16711680
0.274174 0.0578309 0.0159855 16711680
0.273631 0.0584233 0.0153522 16711680
0.27333 0.0590702 0.0150115 16711680
0.272803 0.0596673 0.0143981 16711680
0.272699 0.0603588 0.014297 16711680
0.272396 0.0610063 0.0139546 16711680
0.272251 0.0616891 0.013805 16711680
0.272008 0.0623505 0.013536 16711680
0.271775 0.0630141 0.0132786 16711680
0.271517 0.0636725 0.0129912 16711680
0.271257 0.0643306 0.0127007 16711680
0.270887 0.0649652 0.0122776 16711680
0.270671 0.0656334 0.0120404 16711680
0.288171 0.0715368 0.0333797 16711680
0.287812 0.0721626 0.0329689 16711680
0.287785 0.0728594 0.0329607 16711680
0.287897 0.073586 0.0331228 16711680
0.28787 0.0742827 0.0331155 16711680
0.287923 0.0749961 0.0332047 16711680
0.270105 0.0733756 0.0116371 16711680
0.269536 0.0739713 0.0109717 16711680
0.274184 0.0770736 0.0166934 16711680
0.273449 0.0776335 0.0158268 16711680
0.272717 0.0781947 0.0149626 16711680
0.271377 0.0786327 0.0133604 16711680
0.272318 0.0795367 0.0145285 16711680
0.272148 0.0802142 0.0143483 16711680
0.271963 0.0808884 0.0141485 16711680
0.271381 0.0814829 0.0134666 16711680
0.271526 0.0822241 0.0136682 16711680
0.273201 0.0832712 0.0157287 16711680
0.274345 0.0842098 0.0171424 16711680
0.273036 0.0846594 0.0155785 16711680
0.273076 0.0853777 0.0156517 16711680
0.272848 0.086043 0.0154002 16711680
0.272707 0.0867258 0.0152551 16711680
0.272925 0.0874788 0.0155449 16711680
0.272671 0.0881393 0.0152618 16711680
0.272518 0.0888196 0.0151006 16711680
0.27205 0.0894389 0.0145571 16711680
0.272011 0.0901418 0.0145352 16711680
0.271869 0.0908247 0.0143876 16711680
0.271838 0.0915291 0.0143758 16711680
0.271902 0.0922514 0.0144784 16711680
0.272017 0.0929831 0.0146425 16711680
0.272279 0.0937426 0.0149858 16711680
0.272627 0.0945178 0.015433 16711680
0.272561 0.0952145 0.0153782 16711680
0.273194 0.0960423 0.0161716 16711680
0.273182 0.0967486 0.0161819 16711680
0.273015 0.0974259 0.0160047 16711680
0.272434 0.0980265 0.0153239 16711680
0.272111 0.0986755 0.0149565 16711680
0.271489 0.0992697 0.0142258 16711680
0.271075 0.0999031 0.0137492 16711680
0.270534 0.100513 0.0131171 16711680
0.27074 0.10126 0.0133914 16711680
0.270619 0.101948 0.0132695 16711680
0.271113 0.102746 0.0138937 16711680
0.271858 0.103589 0.014823 16711680
0.272112 0.104343 0.0151556 16711680
0.272652 0.105147 0.0158364 16711680
0.272864 0.105892 0.0161177 16711680
0.27287 0.1066 0.0161494 16711680
0.272455 0.107234 0.0156704 16711680
0.272316 0.107917 0.0155267 16711680
0.271095 0.10841 0.0140696 16711680
0.270803 0.109067 0.0137398 16711680
0.270348 0.109696 0.0132118 16711680
0.270194 0.110378 0.0130496 16711680
0.270762 0.111184 0.0137637 16711680
0.272338 0.112162 0.0157008 16711680
0.272502 0.112897 0.0159239 16711680
0.272331 0.113574 0.0157404 16711680
0.271292 0.114104 0.0145048 16711680
0.269754 0.114551 0.0126625 16711680
0.277267 0.0305428 0.0176119 16711680
0.277045 0.0312042 0.0173693 16711680
0.276806 0.0318613 0.0171055 16711680
0.276335 0.0324605 0.0165594 16711680
0.275408 0.0329462 0.0154576 16711680
0.274659 0.0334774 0.0145723 16711680
0.274175 0.0340754 0.0140097 16711680
0.273484 0.0346228 0.0131963 16711680
0.273477 0.03534 0.0132143 16711680
0.274774 0.0363785 0.0148195 16711680
0.274756 0.0370919 0.0148244 16711680
0.274506 0.0377484 0.0145472 16711680
0.274515 0.0384683 0.0145848 16711680
0.274678 0.0392256 0.0148096 16711680
0.274603 0.0399249 0.0147457 16711680
0.274014 0.0404994 0.0140551 16711680
0.273642 0.0411271 0.0136291 16711680
0.273638 0.041844 0.013651 16711680
0.273384 0.0425007 0.0133696 16711680
0.273313 0.0432013 0.0133095 16711680
0.273347 0.043927 0.0133772 16711680
0.273408 0.0446589 0.0134777 16711680
0.273185 0.0453233 0.0132331 16711680
0.273702 0.0461629 0.0138886 16711680
0.275438 0.0472894 0.0160279 16711680
0.275503 0.0480201 0.0161333 16711680
0.274758 0.0485607 0.0152534 16711680
0.273614 0.0490091 0.0138886 16711680
0.273441 0.0496849 0.0137035 16711680
0.273373 0.0503857 0.0136482 16711680
0.273305 0.0510862 0.0135918 16711680
0.273145 0.0517656 0.0134237 16711680
0.272965 0.0524403 0.0132308 16711680
0.274058 0.0534074 0.0145864 16711680
0.275633 0.0544833 0.0165293 16711680
0.275819 0.0552397 0.016781 16711680
0.27524 0.055822 0.0161036 16711680
0.274762 0.0564278 0.0155483 16711680
0.274892 0.0571716 0.015733 16711680
0.27459 0.0578175 0.0153913 16711680
0.274394 0.0584877 0.0151788 16711680
0.273958 0.0591043 0.0146747 16711680
0.273467 0.0597092 0.0141041 16711680
0.273294 0.0603854 0.0139201 16711680
0.272896 0.0610116 0.0134614 16711680
0.272463 0.0616307 0.0129609 16711680
0.272342 0.062319 0.0128398 16711680
0.272183 0.0629992 0.0126731 16711680
0.271937 0.0636601 0.0123994 16711680
0.271746 0.0643335 0.0121933 16711680
0.288777 0.0701612 0.0329823 16711680
0.28841 0.0707848 0.0325613 16711680
0.288367 0.0714783 0.0325342 16711680
0.288205 0.0721464 0.0323627 16711680
0.287921 0.0727886 0.0320431 16711680
0.28827 0.0735658 0.0324931 16711680
0.288598 0.0743377 0.032917 16711680
0.288122 0.0749392 0.0323634 16711680
0.288441 0.0757088 0.0327766 16711680
0.26834 0.0736224 0.00841403 16711680
0.27321 0.0796218 0.0145144 16711680
0.27313 0.080317 0.0144422 16711680
0.272655 0.0809324 0.013891 16711680
0.272176 0.0815475 0.0133336 16711680
0.272108 0.0822456 0.0132763 16711680
0.275199 0.0835763 0.0170597 16711680
0.274995 0.084245 0.0168365 16711680
0.274719 0.0848997 0.0165261 16711680
0.274129 0.0854924 0.0158343 16711680
0.273382 0.0860549 0.0149519 16711680
0.273142 0.0867181 0.0146861 16711680
0.273261 0.0874518 0.0148559 16711680
0.273271 0.0881639 0.0148929 16711680
0.273248 0.0888695 0.0148906 16711680
0.273112 0.0895531 0.0147507 16711680
0.272722 0.0901876 0.0143017 16711680
0.272561 0.0908667 0.0141317 16711680
0.272527 0.0915704 0.0141157 16711680
0.272335 0.0922435 0.0139066 16711680
0.272361 0.0929585 0.0139639 16711680
0.272653 0.0937238 0.0143437 16711680
0.273038 0.0945061 0.014837 16711680
0.272974 0.0952032 0.014784 16711680
0.273036 0.0959239 0.0148844 16711680
0.273554 0.0967297 0.0155385 16711680
0.274298 0.0975766 0.016467 16711680
0.273899 0.0982106 0.0160079 16711680
0.273614 0.0988658 0.0156859 16711680
0.27338 0.0995309 0.0154274 16711680
0.27303 0.100175 0.015027 16711680
0.271999 0.100695 0.0137987 16711680
0.271762 0.10136 0.0135363 16711680
0.271856 0.102086 0.0136752 16711680
0.271667 0.102761 0.0134705 16711680
0.27174 0.103483 0.013584 16711680
0.272133 0.104262 0.0140861 16711680
0.272681 0.105068 0.0147763 16711680
0.273198 0.105867 0.015429 16711680
0.273784 0.106679 0.0161654 16711680
0.273608 0.107354 0.0159765 16711680
0.273229 0.107994 0.0155406 16711680
0.272637 0.108598 0.0148466 16711680
0.272635 0.109304 0.0148686 16711680
0.271376 0.109793 0.0133643 16711680
0.271176 0.110466 0.0131457 16711680
0.271288 0.111193 0.0133061 16711680
0.272708 0.112145 0.0150559 16711680
0.27367 0.113015 0.0162482 16711680
0.273135 0.11363 0.015623 16711680
0.272513 0.114231 0.0148922 16711680
0.278845 0.0301052 0.0184066 16711680
0.277815 0.0305611 0.0171784 16711680
0.27762 0.0312291 0.0169679 16711680
0.277726 0.0319729 0.0171237 16711680
0.276711 0.0324351 0.0159136 16711680
0.275709 0.0329021 0.0147202 16711680
0.275133 0.0334765 0.014045 16711680
0.274669 0.0340797 0.0135075 16711680
0.274593 0.0347793 0.0134411 16711680
0.275273 0.0356661 0.0142969 16711680
0.27569 0.0364869 0.0148318 16711680
0.275411 0.0371358 0.014519 16711680
0.274794 0.0377022 0.0137949 16711680
0.275046 0.0384815 0.0141276 16711680
0.27531 0.0392637 0.014477 16711680
0.274932 0.0398891 0.0140437 16711680
0.274608 0.0405278 0.0136747 16711680
0.274421 0.0412001 0.0134739 16711680
0.274274 0.0418825 0.0133225 16711680
0.274381 0.0426256 0.0134792 16711680
0.274222 0.0433048 0.0133123 16711680
0.274209 0.044019 0.0133233 16711680
0.274395 0.0447806 0.0135769 16711680
0.274194 0.0454498 0.0133588 16711680
0.274621 0.0462677 0.0139046 16711680
0.276041 0.0473193 0.0156603 16711680
0.276316 0.0480995 0.0160223 16711680
0.275405 0.0486009 0.0149395 16711680
0.274377 0.0490761 0.0137146 16711680
0.273998 0.0497038 0.0132791 16711680
0.274859 0.0506203 0.014354 16711680
0.274372 0.0512232 0.013788 16711680
0.274547 0.0519794 0.0140272 16711680
0.275739 0.0529696 0.0155051 16711680
0.277037 0.0539824 0.0171123 16711680
0.27688 0.05466 0.0169474 16711680
0.276231 0.0552254 0.016183 16711680
0.275794 0.05584 0.0156779 16711680
0.275802 0.0565557 0.0157133 16711680
0.275148 0.0571219 0.0149436 16711680
0.274849 0.0577687 0.0146056 16711680
0.274873 0.0584886 0.0146616 16711680
0.274479 0.0591145 0.0142076 16711680
0.273824 0.0596825 0.0134362 16711680
0.273396 0.0603022 0.0129424 16711680
0.273482 0.0610361 0.0130728 16711680
0.273152 0.0616778 0.0126969 16711680
0.273052 0.0623706 0.0126015 16711680
0.272897 0.0630515 0.0124397 16711680
0.272553 0.0636907 0.0120462 16711680
0.289416 0.0694953 0.0326499 16711680
0.288839 0.0700731 0.0319726 16711680
0.288642 0.0707338 0.0317595 16711680
0.288567 0.0714207 0.0316932 16711680
0.288441 0.0720967 0.031566 16711680
0.288642 0.0728425 0.0318358 16711680
0.289564 0.0737415 0.0329835 16711680
0.289932 0.0745214 0.0334567 16711680
0.289302 0.0750899 0.0327158 16711680
0.288994 0.0757268 0.0323664 16711680
0.288445 0.0763133 0.0317233 16711680
0.288234 0.0769715 0.0314925 16711680
0.2879 0.077604 0.0311109 16711680
0.274776 0.0798442 0.0153204 16711680
0.273469 0.0802896 0.0137565 16711680
0.273632 0.0810341 0.0139802 16711680
0.273398 0.0816982 0.0137209 16711680
0.276195 0.0829715 0.0171487 16711680
0.276106 0.0836631 0.0170666 16711680
0.275293 0.0842101 0.0161031 16711680
0.275277 0.0849165 0.0161084 16711680
0.274778 0.0855272 0.0155269 16711680
0.27375 0.0860341 0.0143024 16711680
0.273664 0.0867275 0.0142225 16711680
0.273594 0.0874242 0.0141636 16711680
0.273528 0.0881216 0.0141085 16711680
0.273631 0.0888518 0.014259 16711680
0.274134 0.0896594 0.014896 16711680
0.274048 0.0903522 0.0148163 16711680
0.273529 0.0909619 0.0142111 16711680
0.273085 0.0915864 0.0136958 16711680
0.272786 0.0922392 0.0133579 16711680
0.27293 0.0929767 0.0135581 16711680
0.272875 0.093676 0.0135164 16711680
0.273139 0.0944357 0.0138626 16711680
0.273454 0.0952045 0.0142708 16711680
0.273354 0.0958949 0.0141747 16711680
0.27368 0.0966647 0.0145952 16711680
0.274212 0.0974726 0.0152674 16711680
0.274695 0.0982705 0.0158801 16711680
0.274988 0.0990325 0.0162617 16711680
0.274709 0.0996886 0.0159475 16711680
0.274962 0.100442 0.0162793 16711680
0.274103 0.100993 0.0152605 16711680
0.273397 0.101572 0.0144262 16711680
0.272805 0.102173 0.0137321 16711680
0.272442 0.102815 0.0133158 16711680
0.272293 0.103497 0.0131593 16711680
0.272675 0.104274 0.0136478 16711680
0.272827 0.105009 0.0138583 16711680
0.273617 0.105858 0.0148431 16711680
0.27405 0.106642 0.0153941 16711680
0.274432 0.107416 0.0158843 16711680
0.274265 0.108093 0.0157051 16711680
0.273879 0.108732 0.0152614 16711680
0.273122 0.109307 0.0143657 16711680
0.27288 0.109972 0.0140958 16711680
0.272061 0.110537 0.0131249 16711680
0.272415 0.111306 0.0135797 16711680
0.273794 0.11225 0.0152814 16711680
0.274555 0.113086 0.0162308 16711680
0.274346 0.113756 0.0160011 16711680
0.273293 0.114283 0.0147456 16711680
0.272895 0.114922 0.0142865 16711680
0.278893 0.0299966 0.0173631 16711680
0.278675 0.0306582 0.0171242 16711680
0.278447 0.0313176 0.0168734 16711680
0.278323 0.0320032 0.0167489 16711680
0.277192 0.0324364 0.0153974 16711680
0.276466 0.0329723 0.0145395 16711680
0.27581 0.0335265 0.0137662 16711680
0.275651 0.0342053 0.0136 16711680
0.276473 0.0351274 0.0146284 16711680
0.27717 0.0360175 0.0155057 16711680
0.276903 0.0366686 0.0152075 16711680
0.275656 0.0370788 0.0137136 16711680
0.275561 0.0377733 0.0136253 16711680
0.275928 0.0385808 0.0140998 16711680
0.275856 0.0392805 0.0140388 16711680
0.275548 0.0399228 0.0136895 16711680
0.275573 0.0406461 0.0137467 16711680
0.275187 0.0412701 0.0133036 16711680
0.275299 0.0420146 0.0134676 16711680
0.275215 0.0427113 0.0133911 16711680
0.275262 0.0434398 0.0134759 16711680
0.275029 0.0441009 0.0132179 16711680
0.275027 0.0448175 0.013243 16711680
0.27488 0.0454994 0.0130905 16711680
0.27491 0.0462234 0.0131538 16711680
0.276778 0.047381 0.0154572 16711680
0.27764 0.0482992 0.0165342 16711680
0.276833 0.0488243 0.0155776 16711680
0.276338 0.0494233 0.0150003 16711680
0.276438 0.0501619 0.0151492 16711680
0.276281 0.0508404 0.0149845 16711680
0.276118 0.0515177 0.0148132 16711680
0.276553 0.0523331 0.0153697 16711680
0.277727 0.0533182 0.0168264 16711680
0.277635 0.0540107 0.0167412 16711680
0.277581 0.0547117 0.016701 16711680
0.276993 0.055291 0.0160114 16711680
0.276717 0.0559417 0.0157009 16711680
0.276185 0.0565348 0.015079 16711680
0.275979 0.0572023 0.0148548 16711680
0.27559 0.0578285 0.0144068 16711680
0.275297 0.0584769 0.0140762 16711680
0.274926 0.0591082 0.0136514 16711680
0.274357 0.0596955 0.0129844 16711680
0.274163 0.0603669 0.0127738 16711680
0.274015 0.0610488 0.0126199 16711680
0.27398 0.0617558 0.0126036 16711680
0.273932 0.0624597 0.0125706 16711680
0.273677 0.0631182 0.0122865 16711680
0.290931 0.0690205 0.0333852 16711680
0.289746 0.0694654 0.0319679 16711680
0.289148 0.0700388 0.0312648 16711680
0.289109 0.0707335 0.0312431 16711680
0.289155 0.0714463 0.0313241 16711680
0.289886 0.072306 0.0322405 16711680
0.291227 0.0732949 0.0339005 16711680
0.291001 0.0739478 0.0336496 16711680
0.290519 0.0745469 0.033089 16711680
0.290351 0.0752128 0.0329095 16711680
0.28977 0.0757916 0.0322266 16711680
0.289255 0.0763852 0.0316249 16711680
0.288108 0.076847 0.0302536 16711680
0.27693 0.0808962 0.016871 16711680
0.276958 0.0816113 0.0169303 16711680
0.277681 0.0824666 0.017837 16711680
0.277177 0.0830739 0.0172484 16711680
0.276989 0.0837453 0.0170457 16711680
0.27659 0.0843744 0.0165845 16711680
0.276 0.0849663 0.0158924 16711680
0.275427 0.0855621 0.0152204 16711680
0.274549 0.0860983 0.0141765 16711680
0.274115 0.0867229 0.0136731 16711680
0.274024 0.0874155 0.0135881 16711680
0.273808 0.0880836 0.0133504 16711680
0.274085 0.0888479 0.0137132 16711680
0.274477 0.0896341 0.0142165 16711680
0.274889 0.0904233 0.0147423 16711680
0.274784 0.0911124 0.0146408 16711680
0.274468 0.091761 0.0142814 16711680
0.27389 0.0923598 0.0136034 16711680
0.27351 0.0929968 0.0131655 16711680
0.273689 0.0937407 0.013409 16711680
0.273816 0.0944742 0.0135885 16711680
0.27365 0.0951521 0.0134115 16711680
0.27367 0.0958652 0.0134612 16711680
0.273949 0.0966266 0.0138259 16711680
0.274169 0.0973766 0.0141195 16711680
0.274642 0.0981728 0.0147194 16711680
0.275243 0.0989923 0.0154768 16711680
0.275524 0.0997517 0.0158435 16711680
0.275833 0.100516 0.016245 16711680
0.275837 0.101223 0.0162743 16711680
0.27504 0.101785 0.0153296 16711680
0.275014 0.102488 0.0153226 16711680
0.27375 0.102966 0.0138094 16711680
0.273226 0.10358 0.0131977 16711680
0.273437 0.104326 0.0134786 16711680
0.2732 0.104992 0.0132157 16711680
0.273664 0.105782 0.0138042 16711680
0.27416 0.106578 0.0144336 16711680
0.275215 0.107471 0.0157421 16711680
0.275498 0.108227 0.016111 16711680
0.274898 0.108828 0.0154057 16711680
0.27449 0.109463 0.0149344 16711680
0.273941 0.110074 0.0142913 16711680
0.274383 0.110858 0.0148536 16711680
0.275009 0.111672 0.0156398 16711680
0.275223 0.112414 0.0159245 16711680
0.27506 0.113092 0.0157511 16711680
0.274986 0.113785 0.0156857 16711680
0.274669 0.114436 0.0153251 16711680
0.27396 0.115022 0.0144863 16711680
0.280449 0.0295544 0.0181321 16711680
0.279952 0.0301445 0.0175527 16711680
0.279107 0.0306471 0.0165486 16711680
0.279204 0.0313886 0.0166949 16711680
0.278365 0.0318941 0.0156983 16711680
0.277668 0.0324362 0.0148741 16711680
0.277208 0.0330386 0.0143399 16711680
0.276701 0.0336299 0.0137485 16711680
0.277125 0.0344535 0.0142937 16711680
0.278038 0.0353976 0.015434 16711680
0.278077 0.0361242 0.0155096 16711680
0.276904 0.0365512 0.0141046 16711680
0.276041 0.0370562 0.0130788 16711680
0.276602 0.0379118 0.0137907 16711680
0.276746 0.0386643 0.013993 16711680
0.276594 0.0393443 0.0138347 16711680
0.276514 0.0400419 0.0137641 16711680
0.276193 0.0406811 0.0133996 16711680
0.276273 0.0414176 0.0135247 16711680
0.275863 0.0420356 0.0130513 16711680
0.276038 0.0427946 0.013291 16711680
0.275739 0.0434399 0.0129534 16711680
0.27587 0.0441881 0.0131397 16711680
0.275859 0.0449022 0.0131536 16711680
0.275704 0.0455821 0.0129918 16711680
0.275805 0.0463225 0.0131414 16711680
0.277179 0.0473634 0.0148439 16711680
0.278376 0.0483606 0.0163312 16711680
0.278472 0.0490975 0.0164752 16711680
0.278457 0.0498082 0.0164839 16711680
0.278423 0.0505142 0.0164685 16711680
0.278378 0.0512178 0.0164409 16711680
0.278327 0.0519196 0.0164046 16711680
0.278234 0.0526121 0.0163189 16711680
0.278176 0.0533124 0.0162746 16711680
0.278161 0.0540224 0.0162822 16711680
0.278082 0.0547178 0.0162121 16711680
0.277836 0.0553751 0.015939 16711680
0.277468 0.0560046 0.0155163 16711680
0.277016 0.0566156 0.0149914 16711680
0.276627 0.0572414 0.0145439 16711680
0.276221 0.0578637 0.0140747 16711680
0.275851 0.0584945 0.0136497 16711680
0.275541 0.0591394 0.0132987 16711680
0.275363 0.059814 0.0131084 16711680
0.275269 0.0605073 0.0130198 16711680
0.275255 0.0612184 0.0130285 16711680
0.275003 0.061877 0.0127487 16711680
0.274824 0.0625516 0.0125558 16711680
0.274367 0.0631654 0.0120256 16711680
0.292504 0.06856 0.0341938 16711680
0.291429 0.0690271 0.0329081 16711680
0.290109 0.0694426 0.0313253 16711680
0.289495 0.0700125 0.0306019 16711680
0.289839 0.0707901 0.0310477 16711680
0.291503 0.0718508 0.0331016 16711680
0.292211 0.0727043 0.0339911 16711680
0.29217 0.0733966 0.0339668 16711680
0.29174 0.0740057 0.0334673 16711680
0.291384 0.0746313 0.0330598 16711680
0.290905 0.0752311 0.0325012 16711680
0.29046 0.0758387 0.0319844 16711680
0.289855 0.076413 0.0312719 16711680
0.288831 0.0769003 0.0300491 16711680
0.28869 0.0775736 0.0299039 16711680
0.288589 0.0782549 0.0298054 16711680
0.287431 0.0787172 0.0284197 16711680
0.286153 0.0791561 0.0268872 16711680
0.280028 0.0821374 0.0195757 16711680
0.278818 0.0826006 0.018126 16711680
0.27776 0.083096 0.0168623 16711680
0.27751 0.0837548 0.0165836 16711680
0.277311 0.084424 0.0163662 16711680
0.276616 0.0849947 0.0155458 16711680
0.276035 0.0855888 0.0148635 16711680
0.275414 0.0861755 0.0141313 16711680
0.274711 0.0867471 0.0133008 16711680
0.274646 0.0874445 0.0132468 16711680
0.274355 0.0880979 0.0129179 16711680
0.274409 0.0888187 0.0130088 16711680
0.274545 0.0895554 0.0132011 16711680
0.275233 0.0903983 0.0140641 16711680
0.275761 0.0912095 0.0147331 16711680
0.275718 0.09191 0.0147057 16711680
0.275063 0.0924936 0.0139338 16711680
0.274883 0.0931683 0.0137396 16711680
0.27456 0.0938161 0.0133711 16711680
0.274318 0.0944794 0.0131013 16711680
0.274251 0.0951762 0.0130455 16711680
0.274214 0.0958785 0.0130256 16711680
0.274398 0.096622 0.0132747 16711680
0.274723 0.0973915 0.0136962 16711680
0.274645 0.0980856 0.0136262 16711680
0.275441 0.0989414 0.0146217 16711680
0.275583 0.0996754 0.0148195 16711680
0.276569 0.100564 0.0160459 16711680
0.276665 0.101289 0.0161884 16711680
0.276498 0.101965 0.0160094 16711680
0.276294 0.102634 0.0157857 16711680
0.27572 0.103237 0.0151126 16711680
0.274693 0.103759 0.0138869 16711680
0.274562 0.104443 0.0137519 16711680
0.274472 0.105135 0.0136675 16711680
0.274549 0.105856 0.0137854 16711680
0.274466 0.106548 0.0137098 16711680
0.275055 0.10736 0.0144517 16711680
0.276013 0.108235 0.0156441 16711680
0.276137 0.108963 0.0158203 16711680
0.275837 0.109616 0.0154797 16711680
0.275526 0.110268 0.0151252 16711680
0.275796 0.111021 0.0154794 16711680
0.275822 0.111731 0.0155349 16711680
0.275623 0.112402 0.0153174 16711680
0.275534 0.113092 0.0152341 16711680
0.275621 0.113813 0.0153645 16711680
0.275322 0.114467 0.0150262 16711680
0.274943 0.115109 0.0145891 16711680
0.280787 0.0295195 0.0174434 16711680
0.28021 0.0300892 0.0167655 16711680
0.28028 0.0308236 0.0168784 16711680
0.2798 0.031419 0.0163203 16711680
0.279101 0.0319594 0.0154927 16711680
0.278321 0.0324805 0.0145671 16711680
0.277806 0.0330692 0.0139662 16711680
0.277639 0.0337451 0.0137894 16711680
0.278264 0.0346184 0.0145798 16711680
0.279027 0.035525 0.0155388 16711680
0.278249 0.0360489 0.0146163 16711680
0.277574 0.0365991 0.0138191 16711680
0.277624 0.0373285 0.0139065 16711680
0.277261 0.0379565 0.0134907 16711680
0.277533 0.0387404 0.0138505 16711680
0.277498 0.0394485 0.0138336 16711680
0.277036 0.040053 0.0132973 16711680
0.277013 0.0407645 0.0132965 16711680
0.276732 0.0414133 0.0129806 16711680
0.276949 0.0421826 0.0132722 16711680
0.276706 0.0428409 0.0130029 16711680
0.276676 0.0435504 0.0129931 16711680
0.276873 0.0443141 0.0132608 16711680
0.277009 0.0450629 0.0134538 16711680
0.276734 0.0457135 0.0131443 16711680
0.276468 0.0463666 0.012846 16711680
0.277161 0.0472468 0.0137199 16711680
0.278505 0.0482792 0.0153879 16711680
0.279091 0.0491314 0.0161302 16711680
0.279267 0.0498867 0.0163717 16711680
0.279034 0.050546 0.0161138 16711680
0.278884 0.051225 0.0159576 16711680
0.278784 0.0519157 0.0158626 16711680
0.278717 0.052614 0.0158076 16711680
0.278668 0.0533163 0.0157739 16711680
0.278597 0.0540135 0.0157138 16711680
0.27849 0.0547026 0.0156103 16711680
0.278259 0.0553633 0.0153551 16711680
0.278338 0.0560948 0.0154778 16711680
0.278173 0.0567707 0.015303 16711680
0.278089 0.0574649 0.0152262 16711680
0.27769 0.058088 0.0147656 16711680
0.277038 0.0586547 0.0139961 16711680
0.276923 0.0593428 0.0138832 16711680
0.276594 0.059983 0.0135081 16711680
0.277184 0.0608282 0.0142541 16711680
0.276617 0.0614156 0.013589 16711680
0.27616 0.0620279 0.0130576 16711680
0.276074 0.0627228 0.0129791 16711680
0.293284 0.067927 0.034036 16711680
0.29295 0.0685553 0.0336543 16711680
0.292278 0.0691103 0.0328599 16711680
0.291604 0.0696656 0.0320634 16711680
0.2917 0.0703887 0.0322069 16711680
0.292902 0.0713503 0.033699 16711680
0.292952 0.0720621 0.0337858 16711680
0.292833 0.0727376 0.0336672 16711680
0.292631 0.0733951 0.0334455 16711680
0.292517 0.0740718 0.0333322 16711680
0.291815 0.0746235 0.0325016 16711680
0.291482 0.0752542 0.0321208 16711680
0.291293 0.0759157 0.0319163 16711680
0.290871 0.0765283 0.0314267 16711680
0.289926 0.0770318 0.0302997 16711680
0.289187 0.0775795 0.0294238 16711680
0.288821 0.0782057 0.0290025 16711680
0.286206 0.0797742 0.0258889 16711680
0.281397 0.0816122 0.0201259 16711680
0.280476 0.0821325 0.0190274 16711680
0.279827 0.082709 0.0182613 16711680
0.278723 0.0831947 0.0169406 16711680
0.278282 0.0838149 0.0164289 16711680
0.277862 0.0844397 0.0159422 16711680
0.277437 0.0850639 0.015449 16711680
0.276412 0.0855696 0.0142243 16711680
0.276119 0.0862213 0.0138929 16711680
0.275821 0.0868723 0.0135547 16711680
0.275477 0.0875147 0.0131611 16711680
0.275198 0.08817 0.012846 16711680
0.27505 0.0888514 0.012692 16711680
0.275178 0.0895862 0.0128731 16711680
0.275555 0.0903691 0.013359 16711680
0.276147 0.0911927 0.0141065 16711680
0.276811 0.0920292 0.0149412 16711680
0.27618 0.0926168 0.0141975 16711680
0.276086 0.0933076 0.0141084 16711680
0.275743 0.093951 0.0137154 16711680
0.275478 0.0946095 0.0134174 16711680
0.275507 0.0953239 0.0134786 16711680
0.275385 0.0960096 0.013355 16711680
0.274884 0.0966244 0.0127697 16711680
0.275042 0.0973628 0.0129874 16711680
0.274959 0.098056 0.0129112 16711680
0.275092 0.0987892 0.0130987 16711680
0.275691 0.0996082 0.0138546 16711680
0.276394 0.100445 0.0147364 16711680
0.277013 0.101266 0.0155171 16711680
0.277443 0.102051 0.0160666 16711680
0.277232 0.102719 0.0158348 16711680
0.276977 0.103379 0.0155482 16711680
0.276851 0.104063 0.0154197 16711680
0.277103 0.104815 0.0157521 16711680
0.275986 0.105321 0.0144156 16711680
0.275168 0.105882 0.0134431 16711680
0.275055 0.106569 0.0133311 16711680
0.275445 0.107345 0.0138314 16711680
0.276492 0.108236 0.0151334 16711680
0.277179 0.109063 0.0159955 16711680
0.276388 0.10963 0.0150555 16711680
0.276104 0.110286 0.0147346 16711680
0.275945 0.110965 0.0145653 16711680
0.276132 0.111703 0.014818 16711680
0.276035 0.112392 0.0147257 16711680
0.275983 0.113088 0.0146866 16711680
0.275998 0.113797 0.0147301 16711680
0.276099 0.114519 0.0148777 16711680
0.275718 0.11516 0.014438 16711680
0.275267 0.115789 0.0139129 16711680
0.275169 0.116478 0.0138189 16711680
0.281254 0.0295174 0.0169123 16711680
0.281286 0.0302419 0.0169785 16711680
0.281055 0.0308995 0.0167234 16711680
0.280199 0.0313994 0.0157039 16711680
0.279419 0.0319196 0.0147779 16711680
0.279117 0.0325609 0.014436 16711680
0.278322 0.033079 0.0134917 16711680
0.278802 0.0339166 0.0141056 16711680
0.279369 0.0347751 0.0148264 16711680
0.279336 0.0354836 0.0148132 16711680
0.278543 0.0360037 0.0138713 16711680
0.278435 0.036694 0.0137663 16711680
0.278269 0.0373701 0.0135907 16711680
0.278166 0.0380618 0.013492 16711680
0.278093 0.0387608 0.0134298 16711680
0.277748 0.0393932 0.0130346 16711680
0.277821 0.0401282 0.0131524 16711680
0.277656 0.0408048 0.0129772 16711680
0.27757 0.0415009 0.0128996 16711680
0.27761 0.0422271 0.0129751 16711680
0.277851 0.0430018 0.0132972 16711680
0.277944 0.0437404 0.0134382 16711680
0.27781 0.0444242 0.0133005 16711680
0.277871 0.045155 0.0134032 16711680
0.277578 0.0458012 0.0130723 16711680
0.277055 0.0463931 0.0124598 16711680
0.277549 0.0472261 0.0130904 16711680
0.278083 0.0480677 0.0137701 16711680
0.279255 0.0490584 0.0152292 16711680
0.279587 0.0498504 0.0156615 16711680
0.279432 0.0505281 0.0154986 16711680
0.279285 0.0512079 0.0153468 16711680
0.279187 0.0518989 0.0152532 16711680
0.279161 0.0526067 0.0152483 16711680
0.279057 0.0532965 0.0151479 16711680
0.279 0.053997 0.0151048 16711680
0.278785 0.0546613 0.0148695 16711680
0.278656 0.0553456 0.0147388 16711680
0.278817 0.0560956 0.0149611 16711680
0.278847 0.0568158 0.0150245 16711680
0.278989 0.0575612 0.0152247 16711680
0.27867 0.0582022 0.0148617 16711680
0.278603 0.0589002 0.0148065 16711680
0.278413 0.0595707 0.0146015 16711680
0.278247 0.0602466 0.0144253 16711680
0.277669 0.0608307 0.0137458 16711680
0.277311 0.0614644 0.013335 16711680
0.277187 0.0621503 0.0132099 16711680
0.292896 0.0677394 0.032479 16711680
0.293895 0.06866 0.0337254 16711680
0.293552 0.0692863 0.0333318 16711680
0.293327 0.0699387 0.0330832 16711680
0.293535 0.0706851 0.0333629 16711680
0.293448 0.0713674 0.033283 16711680
0.293398 0.0720577 0.0332479 16711680
0.293249 0.0727265 0.0330912 16711680
0.293186 0.073414 0.0330397 16711680
0.293005 0.0740762 0.0328445 16711680
0.292397 0.0746479 0.032128 16711680
0.29195 0.0752545 0.0316087 16711680
0.29164 0.0758903 0.0312552 16711680
0.291493 0.0765608 0.0311011 16711680
0.290617 0.0770786 0.0300575 16711680
0.289903 0.0776313 0.0292113 16711680
0.289278 0.0782034 0.028474 16711680
0.289325 0.0789158 0.0285573 16711680
0.288992 0.0795495 0.0281765 16711680
0.287144 0.0798708 0.0259451 16711680
0.285201 0.0801753 0.0235983 16711680
0.283784 0.0805902 0.0218942 16711680
0.283532 0.0812446 0.0216123 16711680
0.281876 0.0816138 0.0196164 16711680
0.281646 0.0822741 0.0193609 16711680
0.28078 0.0828063 0.0183299 16711680
0.279389 0.0832337 0.0166571 16711680
0.279452 0.0839548 0.01676 16711680
0.278534 0.0844794 0.0156646 16711680
0.278085 0.0850988 0.0151426 16711680
0.277129 0.0856179 0.0140011 16711680
0.276869 0.0862761 0.0137098 16711680
0.276406 0.0868943 0.0131698 16711680
0.27631 0.0875852 0.0130779 16711680
0.276128 0.0882594 0.012882 16711680
0.275789 0.0889031 0.0124941 16711680
0.275788 0.0896127 0.0125182 16711680
0.276191 0.0904005 0.0130358 16711680
0.276325 0.0911358 0.0132256 16711680
0.277269 0.0920264 0.0144033 16711680
0.277702 0.0928177 0.0149571 16711680
0.277271 0.0934433 0.014456 16711680
0.276783 0.0940587 0.0138859 16711680
0.276497 0.0947131 0.0135634 16711680
0.276362 0.0953959 0.0134234 16711680
0.275821 0.0960027 0.0127892 16711680
0.27591 0.096728 0.0129228 16711680
0.27557 0.097373 0.0125332 16711680
0.275526 0.0980735 0.0125048 16711680
0.275427 0.0987637 0.0124097 16711680
0.275961 0.0995708 0.0130866 16711680
0.276447 0.100368 0.0137051 16711680
0.277618 0.10129 0.015159 16711680
0.278305 0.102122 0.0160232 16711680
0.278085 0.102788 0.0157796 16711680
0.277857 0.103453 0.0155265 16711680
0.277818 0.104152 0.015504 16711680
0.278516 0.104984 0.0163805 16711680
0.27774 0.10555 0.0154601 16711680
0.276535 0.106041 0.0140145 16711680
0.275983 0.10665 0.0133659 16711680
0.275702 0.107307 0.0130488 16711680
0.277065 0.108254 0.0147358 16711680
0.277923 0.109111 0.0158081 16711680
0.277897 0.109811 0.0158014 16711680
0.276767 0.11032 0.0144484 16711680
0.276659 0.111007 0.0143409 16711680
0.27674 0.111726 0.0144645 16711680
0.276531 0.112396 0.0142343 16711680
0.276278 0.113058 0.0139512 16711680
0.276357 0.113777 0.0140721 16711680
0.277325 0.114647 0.0152781 16711680
0.277262 0.115341 0.0152262 16711680
0.276189 0.115865 0.0139421 16711680
0.282496 0.0289969 0.0173013 16711680
0.282001 0.0295866 0.0167232 16711680
0.282276 0.0303727 0.0170873 16711680
0.281691 0.0309403 0.0163989 16711680
0.281062 0.0314975 0.0156568 16711680
0.280127 0.0319781 0.0145396 16711680
0.279283 0.0324829 0.0135342 16711680
0.279213 0.0331827 0.0134755 16711680
0.27983 0.0340543 0.0142578 16711680
0.28082 0.0350183 0.015498 16711680
0.280206 0.0355815 0.0147734 16711680
0.279431 0.0361058 0.0138527 16711680
0.279046 0.0367274 0.013409 16711680
0.27902 0.0374377 0.0134039 16711680
0.278835 0.0381091 0.0132049 16711680
0.278765 0.0388087 0.0131468 16711680
0.278773 0.0395276 0.0131845 16711680
0.278477 0.040172 0.0128498 16711680
0.278696 0.0409416 0.0131438 16711680
0.278595 0.0416338 0.0130488 16711680
0.278618 0.0423555 0.013103 16711680
0.278591 0.0430654 0.0130982 16711680
0.278616 0.0437874 0.0131553 16711680
0.2784 0.0444516 0.0129185 16711680
0.278463 0.0451827 0.0130229 16711680
0.278393 0.0458818 0.0129642 16711680
0.278102 0.0465285 0.0126354 16711680
0.277956 0.0472097 0.0124838 16711680
0.27823 0.0479901 0.0128454 16711680
0.279561 0.0490186 0.014501 16711680
0.280137 0.0498682 0.0152329 16711680
0.279924 0.0505322 0.014999 16711680
0.279718 0.051198 0.0147736 16711680
0.279729 0.0519145 0.0148139 16711680
0.279593 0.0525968 0.0146749 16711680
0.27954 0.0532984 0.0146371 16711680
0.279417 0.0539837 0.014513 16711680
0.279192 0.0546457 0.0142647 16711680
0.279107 0.0553399 0.0141873 16711680
0.279016 0.0560329 0.0141035 16711680
0.279142 0.056775 0.0142841 16711680
0.279679 0.0576101 0.0149671 16711680
0.279857 0.0583632 0.0152118 16711680
0.279829 0.0590694 0.0152036 16711680
0.279785 0.0597721 0.0151772 16711680
0.279459 0.0604117 0.0148058 16711680
0.279124 0.0610492 0.0144216 16711680
0.278702 0.0616682 0.0139334 16711680
0.277169 0.062041 0.0120853 16711680
0.289222 0.0661244 0.026875 16711680
0.292919 0.0676415 0.0314209 16711680
0.294472 0.0686839 0.0333456 16711680
0.294268 0.0693406 0.0331227 16711680
0.29429 0.0700466 0.0331764 16711680
0.294288 0.070747 0.0331988 16711680
0.294126 0.0714129 0.0330269 16711680
0.293911 0.0720675 0.0327904 16711680
0.293862 0.072758 0.0327572 16711680
0.293736 0.0734318 0.0326285 16711680
0.293565 0.0740962 0.0324454 16711680
0.293118 0.0747019 0.0319251 16711680
0.292424 0.0752557 0.0311019 16711680
0.291946 0.0758562 0.030544 16711680
0.291676 0.0765009 0.0302397 16711680
0.291313 0.0771264 0.0298218 16711680
0.290394 0.0776361 0.0287246 16711680
0.290018 0.07826 0.0282907 16711680
0.290489 0.0790603 0.0288922 16711680
0.289349 0.0795264 0.0275254 16711680
0.287803 0.0799101 0.0256615 16711680
0.287069 0.0804628 0.0247898 16711680
0.286356 0.0810207 0.0239444 16711680
0.282669 0.0823859 0.0195159 16711680
0.281312 0.0828184 0.0178843 16711680
0.281006 0.0834642 0.0175357 16711680
0.280655 0.0841014 0.0171328 16711680
0.279221 0.0845223 0.0154063 16711680
0.278577 0.0851026 0.0146452 16711680
0.278088 0.0857145 0.0140741 16711680
0.277507 0.0863087 0.0133901 16711680
0.277213 0.0869602 0.0130563 16711680
0.277106 0.0876486 0.012951 16711680
0.276858 0.0883096 0.0126736 16711680
0.276825 0.0890128 0.0126594 16711680
0.276847 0.0897266 0.0127126 16711680
0.276696 0.0904067 0.0125538 16711680
0.276843 0.0911444 0.012759 16711680
0.277545 0.0919885 0.0136416 16711680
0.278151 0.0928131 0.0144078 16711680
0.278222 0.0935347 0.0145205 16711680
0.277997 0.0941997 0.0142709 16711680
0.278131 0.0949329 0.0144598 16711680
0.277935 0.0956037 0.0142468 16711680
0.277178 0.0961689 0.013347 16711680
0.276641 0.0967764 0.0127174 16711680
0.27645 0.0974491 0.0125095 16711680
0.276521 0.0981707 0.0126218 16711680
0.27676 0.0989231 0.0129385 16711680
0.277136 0.0997004 0.013423 16711680
