# .PCD v0.7 - Point Cloud Data file format
VERSION 0.7
FIELDS x y z rgb
SIZE 4 4 4 4
TYPE F F F F
COUNT 1 1 1 1
WIDTH 1236
HEIGHT 1
VIEWPOINT 0 0 0 1 0 0 0
POINTS 1236
DATA ascii
0.406404 -0.0339253 0.0424993 16711680
0.406524 -0.0331999 0.042662 16711680
0.406363 -0.0325705 0.0424474 16711680
0.406525 -0.0318314 0.0426656 16711680
0.406394 -0.0311916 0.0424919 16711680
0.406566 -0.0304495 0.0427243 16711680
0.406591 -0.0297575 0.0427589 16711680
0.406758 -0.0290173 0.0429862 16711680
0.407888 -0.027954 0.0445075 16711680
0.408377 -0.0271075 0.0451671 16711680
0.408556 -0.0263655 0.0454103 16711680
0.408603 -0.0256683 0.0454743 16711680
0.40863 -0.0249779 0.0455118 16711680
0.408507 -0.0243372 0.0453486 16711680
0.408457 -0.0236726 0.0452822 16711680
0.410003 -0.0671274 0.0461385 16711680
0.409639 -0.0665781 0.0456499 16711680
0.409589 -0.065909 0.0455841 16711680
0.409147 -0.0653885 0.0449909 16711680
0.408897 -0.0647948 0.0446557 16711680
0.408507 -0.0642537 0.0441322 16711680
0.40809 -0.0637224 0.0435722 16711680
0.407956 -0.0630842 0.0433929 16711680
0.407746 -0.0624745 0.0431111 16711680
0.40769 -0.0618066 0.043038 16711680
0.407575 -0.0611608 0.0428852 16711680
0.407564 -0.0604763 0.0428721 16711680
0.407465 -0.0598247 0.04274 16711680
0.407439 -0.0591457 0.0427071 16711680
0.40734 -0.0584942 0.0425748 16711680
0.407317 -0.0578141 0.0425466 16711680
0.407187 -0.0571738 0.0423732 16711680
0.407153 -0.0564982 0.0423287 16711680
0.407064 -0.0558429 0.0422102 16711680
0.407114 -0.0551363 0.0422801 16711680
0.40705 -0.0544719 0.0421947 16711680
0.407213 -0.0537246 0.0424161 16711680
0.407718 -0.0528528 0.0430984 16711680
0.407826 -0.0521265 0.0432454 16711680
0.408398 -0.0512321 0.0440173 16711680
0.408514 -0.0505034 0.0441763 16711680
0.408562 -0.0498001 0.0442423 16711680
0.408808 -0.0490256 0.0445746 16711680
0.408634 -0.0484025 0.0443422 16711680
0.409133 -0.0475377 0.0450157 16711680
0.409213 -0.0468236 0.0451262 16711680
0.409176 -0.0461521 0.0450771 16711680
0.409252 -0.0454398 0.045182 16711680
0.408844 -0.0449006 0.0446329 16711680
0.407981 -0.0445218 0.0434731 16711680
0.408073 -0.0438037 0.0435988 16711680
0.407773 -0.0432248 0.0431952 16711680
0.408043 -0.042444 0.0435609 16711680
0.407816 -0.0418387 0.0432572 16711680
0.407844 -0.041144 0.0432957 16711680
0.407552 -0.040561 0.042905 16711680
0.407568 -0.0398703 0.0429283 16711680
0.407277 -0.039287 0.0425372 16711680
0.40745 -0.0385417 0.0427715 16711680
0.40717 -0.037954 0.0423965 16711680
0.407258 -0.0372387 0.0425161 16711680
0.407112 -0.0366043 0.0423217 16711680
0.407243 -0.0358743 0.0424995 16711680
0.407066 -0.0352507 0.0422628 16711680
0.407173 -0.0345296 0.0424078 16711680
0.407084 -0.0338756 0.0422897 16711680
0.40723 -0.0331413 0.042488 16711680
0.40704 -0.032522 0.0422338 16711680
0.407213 -0.0317789 0.0424687 16711680
0.407052 -0.0311498 0.0422531 16711680
0.407178 -0.030423 0.042425 16711680
0.407015 -0.0297945 0.0422071 16711680
0.407109 -0.0290792 0.0423344 16711680
0.407162 -0.028378 0.042407 16711680
0.407368 -0.0276254 0.0426861 16711680
0.408511 -0.0265591 0.0442283 16711680
0.409061 -0.0256932 0.0449706 16711680
0.409315 -0.0249269 0.0453144 16711680
0.409259 -0.0242643 0.0452406 16711680
0.409335 -0.023558 0.045344 16711680
0.409035 -0.0229762 0.0449419 16711680
0.40884 -0.0223595 0.0446807 16711680
0.410578 -0.0678002 0.0457846 16711680
0.410259 -0.0672336 0.0453573 16711680
0.409899 -0.0666826 0.0448736 16711680
0.409839 -0.0660171 0.0447946 16711680
0.409278 -0.0655418 0.0440396 16711680
0.408818 -0.0650275 0.0434207 16711680
0.408741 -0.0643674 0.0433198 16711680
0.408464 -0.0637832 0.042948 16711680
0.408389 -0.0631227 0.0428482 16711680
0.408246 -0.0624875 0.0426576 16711680
0.408211 -0.0618119 0.042612 16711680
0.408102 -0.0611638 0.0424675 16711680
0.40808 -0.0604834 0.0424395 16711680
0.407973 -0.0598349 0.0422963 16711680
0.407981 -0.0591432 0.0423094 16711680
0.407873 -0.058495 0.0421654 16711680
0.40787 -0.0578075 0.0421638 16711680
0.407853 -0.0571257 0.0421422 16711680
0.408105 -0.0563448 0.0424833 16711680
0.409164 -0.0552675 0.0439134 16711680
0.409399 -0.0544942 0.0442325 16711680
0.40954 -0.0537559 0.0444248 16711680
0.409967 -0.0529135 0.0450023 16711680
0.40995 -0.0522341 0.0449802 16711680
0.409939 -0.0515522 0.0449677 16711680
0.410156 -0.0507877 0.0452619 16711680
0.409912 -0.0501908 0.0449343 16711680
0.410091 -0.0494405 0.0451778 16711680
0.409925 -0.0488153 0.0449554 16711680
0.409994 -0.048105 0.0450512 16711680
0.409893 -0.0474563 0.0449164 16711680
0.409848 -0.0467873 0.0448581 16711680
0.40969 -0.0461591 0.0446455 16711680
0.409681 -0.0454771 0.0446362 16711680
0.409326 -0.0449188 0.0441588 16711680
0.40843 -0.0445521 0.0429531 16711680
0.40878 -0.0437427 0.0434256 16711680
0.408475 -0.0431653 0.0430164 16711680
0.409008 -0.042292 0.0437365 16711680
0.40967 -0.0413739 0.0446311 16711680
0.409598 -0.0407149 0.0445362 16711680
0.409669 -0.0400062 0.0446329 16711680
0.409515 -0.0393759 0.044428 16711680
0.409388 -0.0387366 0.0442575 16711680
0.408982 -0.0381941 0.0437118 16711680
0.408903 -0.0375373 0.0436078 16711680
0.408395 -0.0370295 0.0429243 16711680
0.40823 -0.0364025 0.0427027 16711680
0.408161 -0.0357418 0.0426121 16711680
0.40783 -0.0351717 0.0421669 16711680
0.407909 -0.0344599 0.042276 16711680
0.407775 -0.0338216 0.0420971 16711680
0.407834 -0.0331174 0.0421776 16711680
0.407793 -0.0324473 0.0421243 16711680
0.407839 -0.0317478 0.0421872 16711680
0.407715 -0.0311059 0.0420226 16711680
0.407786 -0.0303982 0.0421193 16711680
0.40766 -0.029757 0.0419518 16711680
0.407734 -0.0290484 0.0420533 16711680
0.407624 -0.0284021 0.0419061 16711680
0.407712 -0.0276891 0.0420266 16711680
0.40784 -0.0269629 0.042201 16711680
0.407937 -0.0262476 0.0423328 16711680
0.409133 -0.0251655 0.0439472 16711680
0.40976 -0.024275 0.0447942 16711680
0.40994 -0.0235339 0.0450388 16711680
0.409845 -0.0228845 0.0449122 16711680
0.409832 -0.0222077 0.0448968 16711680
0.40945 -0.0216531 0.0443827 16711680
0.409023 -0.0211126 0.0438086 16711680
0.412032 -0.0688229 0.0466167 16711680
0.411087 -0.0684979 0.0453427 16711680
0.410727 -0.0679473 0.0448594 16711680
0.410587 -0.0673124 0.0446726 16711680
0.410207 -0.0667688 0.044162 16711680
0.409881 -0.0662043 0.0437241 16711680
0.409561 -0.0656374 0.043293 16711680
0.409246 -0.0650676 0.042871 16711680
0.409165 -0.0644093 0.0427636 16711680
0.408964 -0.0637966 0.0424933 16711680
0.408911 -0.0631274 0.0424247 16711680
0.408769 -0.062492 0.0422345 16711680
0.408726 -0.0618193 0.0421788 16711680
0.408612 -0.0611734 0.0420259 16711680
0.408573 -0.0604992 0.0419757 16711680
0.408508 -0.0598348 0.0418897 16711680
0.408691 -0.0590782 0.0421389 16711680
0.409571 -0.0580635 0.0433278 16711680
0.4101 -0.0571801 0.0440439 16711680
0.410593 -0.056311 0.0447112 16711680
0.410702 -0.0555842 0.044861 16711680
0.410637 -0.0549219 0.0447751 16711680
0.410604 -0.0542477 0.0447328 16711680
0.410528 -0.0535898 0.0446309 16711680
0.410506 -0.0529119 0.044603 16711680
0.410476 -0.0522369 0.0445645 16711680
0.410339 -0.051601 0.0443815 16711680
0.410241 -0.0509505 0.044252 16711680
0.410103 -0.0503148 0.0440677 16711680
0.409688 -0.0497792 0.0435092 16711680
0.409663 -0.0491023 0.0434772 16711680
0.409357 -0.0485268 0.0430657 16711680
0.409467 -0.0478014 0.0432156 16711680
0.409017 -0.0472768 0.0426109 16711680
0.40904 -0.0465827 0.0426434 16711680
0.408829 -0.0459719 0.0423615 16711680
0.40889 -0.0452643 0.0424454 16711680
0.408713 -0.0446418 0.0422074 16711680
0.408521 -0.0440238 0.0419512 16711680
0.408476 -0.0433541 0.0418917 16711680
0.408521 -0.0426523 0.0419548 16711680
0.408759 -0.0418831 0.0422771 16711680
0.409515 -0.0409319 0.0432991 16711680
0.410271 -0.0399822 0.0443209 16711680
0.410444 -0.0392376 0.0445565 16711680
0.410411 -0.0385654 0.0445144 16711680
0.41045 -0.0378684 0.0445683 16711680
0.410361 -0.0372159 0.0444503 16711680
0.410434 -0.0365072 0.0445508 16711680
0.410215 -0.0358998 0.0442573 16711680
0.409641 -0.0354151 0.0434839 16711680
0.409221 -0.0348762 0.042919 16711680
0.408838 -0.0343243 0.0424036 16711680
0.408825 -0.0336447 0.042388 16711680
0.408615 -0.0330329 0.0421063 16711680
0.408554 -0.0323698 0.0420258 16711680
0.408504 -0.0317029 0.0419605 16711680
0.408486 -0.0310253 0.0419381 16711680
0.40844 -0.0303576 0.0418763 16711680
0.408428 -0.0296781 0.0418619 16711680
0.408352 -0.0290202 0.0417615 16711680
0.408377 -0.0283283 0.0417975 16711680
0.408349 -0.0276544 0.0417616 16711680
0.40832 -0.0269809 0.0417243 16711680
0.408311 -0.026301 0.0417136 16711680
0.408505 -0.0255532 0.0419772 16711680
0.40896 -0.024719 0.0425924 16711680
0.410038 -0.0236784 0.0440493 16711680
0.410374 -0.0228857 0.0445043 16711680
0.410515 -0.0221582 0.0446959 16711680
0.410352 -0.0215312 0.0444782 16711680
0.410272 -0.020877 0.0443711 16711680
0.409795 -0.020353 0.0437291 16711680
0.412611 -0.069493 0.0462706 16711680
0.411839 -0.0691023 0.0452293 16711680
0.411366 -0.0685957 0.0445923 16711680
0.411045 -0.0680301 0.0441612 16711680
0.410916 -0.0673911 0.043988 16711680
0.410505 -0.0668591 0.0434357 16711680
0.410075 -0.0663342 0.0428563 16711680
0.410023 -0.0656647 0.042789 16711680
0.409721 -0.0650906 0.0423821 16711680
0.409651 -0.0644281 0.0422897 16711680
0.409474 -0.063806 0.0420527 16711680
0.409428 -0.0631343 0.041993 16711680
0.409296 -0.0624952 0.0418161 16711680
0.409274 -0.0618148 0.0417881 16711680
0.409214 -0.0611481 0.0417104 16711680
0.409863 -0.0602171 0.0425887 16711680
0.410715 -0.0592113 0.0437421 16711680
0.411275 -0.0583159 0.0444998 16711680
0.411305 -0.0576178 0.0445434 16711680
0.411331 -0.0569219 0.0445796 16711680
0.4113 -0.0562467 0.0445405 16711680
0.411114 -0.0556294 0.0442901 16711680
0.41109 -0.0549516 0.0442607 16711680
0.411078 -0.0542699 0.0442462 16711680
0.410564 -0.0537721 0.0435542 16711680
0.410551 -0.0530906 0.043538 16711680
0.410247 -0.0525154 0.043129 16711680
0.410229 -0.0518352 0.0431076 16711680
0.409907 -0.0512662 0.0426738 16711680
0.40978 -0.0506258 0.0425042 16711680
0.409677 -0.0499764 0.0423678 16711680
0.409573 -0.0493277 0.0422288 16711680
0.409536 -0.0486548 0.0421805 16711680
0.409493 -0.0479838 0.0421251 16711680
0.409416 -0.0473253 0.0420228 16711680
0.409349 -0.0466633 0.0419339 16711680
0.409308 -0.045992 0.0418801 16711680
0.409259 -0.0453235 0.0418155 16711680
0.409191 -0.0446616 0.0417265 16711680
0.408978 -0.0440515 0.0414404 16711680
0.408928 -0.0433833 0.0413748 16711680
0.408842 -0.042728 0.0412601 16711680
0.409006 -0.0419843 0.041484 16711680
0.409134 -0.0412537 0.0416592 16711680
0.409175 -0.0405541 0.041716 16711680
0.409636 -0.0397076 0.0423404 16711680
0.41013 -0.0388502 0.0430096 16711680
0.410286 -0.0381117 0.0432221 16711680
0.410817 -0.0372427 0.0439423 16711680
0.411099 -0.0364615 0.0443246 16711680
0.411022 -0.0358051 0.0442224 16711680
0.4111 -0.0350951 0.0443298 16711680
0.410878 -0.034489 0.0440311 16711680
0.410878 -0.0338058 0.0440342 16711680
0.41044 -0.0332734 0.0434444 16711680
0.409833 -0.0327987 0.0426251 16711680
0.409666 -0.0321723 0.0424019 16711680
0.409324 -0.0316055 0.041942 16711680
0.409356 -0.0309112 0.0419866 16711680
0.409139 -0.0303015 0.0416954 16711680
0.409191 -0.0296005 0.0417672 16711680
0.409063 -0.0289604 0.0415963 16711680
0.409144 -0.0282497 0.041708 16711680
0.408985 -0.0276202 0.0414946 16711680
0.409097 -0.0268995 0.0416479 16711680
0.408959 -0.0262627 0.0414639 16711680
0.408966 -0.0255775 0.0414748 16711680
0.408887 -0.0249211 0.04137 16711680
0.409163 -0.0241468 0.0417435 16711680
0.410087 -0.0231577 0.0429939 16711680
0.41089 -0.0222104 0.0440801 16711680
0.410995 -0.0214947 0.0442245 16711680
0.411021 -0.0208054 0.0442619 16711680
0.410832 -0.0201872 0.0440078 16711680
0.410599 -0.019583 0.0436952 16711680
0.410019 -0.0190923 0.0429128 16711680
0.413251 -0.0715155 0.046002 16711680
0.413197 -0.0708486 0.0459307 16711680
0.413055 -0.0702156 0.045741 16711680
0.412369 -0.069792 0.0448158 16711680
0.411828 -0.0693121 0.0440859 16711680
0.411739 -0.0686576 0.0439678 16711680
0.41142 -0.0680913 0.0435385 16711680
0.41124 -0.0674715 0.0432971 16711680
0.410911 -0.0669083 0.0428547 16711680
0.410501 -0.0663755 0.0423028 16711680
0.410447 -0.0657071 0.0422316 16711680
0.41022 -0.0651042 0.0419267 16711680
0.410148 -0.0644426 0.041831 16711680
0.410013 -0.0638045 0.041651 16711680
0.410027 -0.0631103 0.0416722 16711680
0.410562 -0.0622203 0.0423976 16711680
0.411245 -0.0612755 0.0433239 16711680
0.411805 -0.060378 0.0440832 16711680
0.411952 -0.0596361 0.0442836 16711680
0.411827 -0.0589957 0.0441175 16711680
0.411876 -0.0582907 0.0441856 16711680
0.41172 -0.0576622 0.0439762 16711680
0.411728 -0.0569726 0.0439892 16711680
0.41146 -0.0563851 0.0436295 16711680
0.411011 -0.0558643 0.0430242 16711680
0.411286 -0.0550761 0.0433981 16711680
0.411524 -0.0543022 0.0437218 16711680
0.410845 -0.0538651 0.0428056 16711680
0.410351 -0.0533592 0.04214 16711680
0.410486 -0.0526232 0.0423241 16711680
0.410484 -0.0519371 0.0423241 16711680
0.410311 -0.0513136 0.0420916 16711680
0.410158 -0.0506825 0.0418872 16711680
0.410118 -0.0500103 0.0418358 16711680
0.41001 -0.0493631 0.0416909 16711680
0.409979 -0.0486877 0.0416518 16711680
0.409954 -0.0480104 0.0416197 16711680
0.409914 -0.0473384 0.0415682 16711680
0.409887 -0.0466621 0.041533 16711680
0.409851 -0.045989 0.0414859 16711680
0.409769 -0.0453321 0.0413778 16711680
0.409704 -0.0446694 0.0412917 16711680
0.409581 -0.0440272 0.0411274 16711680
0.4096 -0.0433348 0.0411545 16711680
0.409505 -0.0426825 0.0410287 16711680
0.409516 -0.0419928 0.0410463 16711680
0.409564 -0.0412906 0.0411123 16711680
0.409613 -0.0405881 0.0411801 16711680
0.409725 -0.0398633 0.0413347 16711680
0.409633 -0.0392105 0.0412122 16711680
0.409824 -0.0384589 0.0414727 16711680
0.409973 -0.0377223 0.0416757 16711680
0.410283 -0.0369303 0.0420965 16711680
0.41076 -0.0360808 0.0427433 16711680
0.411317 -0.0352044 0.0434986 16711680
0.411525 -0.0344494 0.0437822 16711680
0.411622 -0.0337334 0.0439147 16711680
0.411611 -0.0330544 0.0439023 16711680
0.411632 -0.0323648 0.0439321 16711680
0.411307 -0.0317935 0.0434951 16711680
0.411128 -0.0311722 0.0432543 16711680
0.410406 -0.0307353 0.0422807 16711680
0.410017 -0.0301846 0.0417562 16711680
0.410056 -0.0294881 0.0418113 16711680
0.409783 -0.0288974 0.0414439 16711680
0.409919 -0.0281683 0.0416301 16711680
0.409649 -0.0275763 0.0412668 16711680
0.409846 -0.0268273 0.0415345 16711680
0.409637 -0.0262144 0.0412545 16711680
0.409663 -0.0255231 0.041291 16711680
0.40948 -0.0249014 0.0410455 16711680
0.40958 -0.0241855 0.0411826 16711680
0.409529 -0.02352 0.0411153 16711680
0.409837 -0.0227355 0.0415338 16711680
0.411018 -0.0216632 0.0431325 16711680
0.411573 -0.0207991 0.0438854 16711680
0.411561 -0.0201226 0.0438706 16711680
0.411499 -0.0194624 0.0437891 16711680
0.411122 -0.0189058 0.0432802 16711680
0.410789 -0.0183339 0.0428323 16711680
0.413586 -0.0715928 0.0453265 16711680
0.413264 -0.0710292 0.044894 16711680
0.412887 -0.0704869 0.044385 16711680
0.412485 -0.0699534 0.0438434 16711680
0.412116 -0.0694068 0.0433465 16711680
0.412136 -0.0687105 0.043375 16711680
0.411841 -0.0681349 0.0429783 16711680
0.411597 -0.0675394 0.0426506 16711680
0.41135 -0.066945 0.0423179 16711680
0.411004 -0.0663879 0.0418521 16711680
0.410926 -0.0657283 0.0417492 16711680
0.410769 -0.0650991 0.0415384 16711680
0.410792 -0.0644013 0.0415719 16711680
0.411748 -0.0633509 0.0428686 16711680
0.412626 -0.0623316 0.0440596 16711680
0.412625 -0.0616449 0.0440601 16711680
0.412662 -0.0609439 0.0441124 16711680
0.412421 -0.0603473 0.0437882 16711680
0.412371 -0.0596789 0.043723 16711680
0.412021 -0.0591227 0.0432515 16711680
0.411928 -0.0584703 0.0431277 16711680
0.411423 -0.057971 0.0424465 16711680
0.411008 -0.0574378 0.0418864 16711680
0.411063 -0.0567297 0.0419638 16711680
0.410734 -0.0561639 0.0415206 16711680
0.411152 -0.0553223 0.0420885 16711680
0.412035 -0.0543105 0.0432856 16711680
0.411391 -0.0538608 0.042416 16711680
0.41064 -0.0534493 0.0414013 16711680
0.411008 -0.0526277 0.0419016 16711680
0.411064 -0.0519203 0.0419807 16711680
0.410822 -0.051322 0.0416551 16711680
0.410661 -0.0506939 0.0414392 16711680
0.41065 -0.0500114 0.0414258 16711680
0.410542 -0.049364 0.0412819 16711680
0.410529 -0.0486822 0.0412666 16711680
0.410473 -0.0480159 0.0411935 16711680
0.410459 -0.0473348 0.041176 16711680
0.410432 -0.0466583 0.0411416 16711680
0.410401 -0.0459831 0.0411026 16711680
0.410317 -0.0453272 0.0409908 16711680
0.410259 -0.0446621 0.0409141 16711680
0.410229 -0.0439869 0.0408752 16711680
0.410174 -0.0433208 0.0408027 16711680
0.410092 -0.0426639 0.0406945 16711680
0.410198 -0.0419408 0.0408401 16711680
0.410228 -0.041245 0.0408825 16711680
0.410206 -0.0405672 0.0408553 16711680
0.410328 -0.0398392 0.0410229 16711680
0.410203 -0.0391983 0.0408546 16711680
0.410271 -0.0384893 0.0409499 16711680
0.410223 -0.0378213 0.0408864 16711680
0.410383 -0.0370811 0.0411046 16711680
0.410362 -0.0364038 0.0410787 16711680
0.410464 -0.0356843 0.041218 16711680
0.410799 -0.0348844 0.0416739 16711680
0.410995 -0.0341329 0.0419418 16711680
0.411764 -0.0331852 0.042984 16711680
0.4122 -0.0323528 0.043576 16711680
0.412415 -0.0315968 0.0438693 16711680
0.412318 -0.0309478 0.04374 16711680
0.412165 -0.0303177 0.0435356 16711680
0.41182 -0.0297531 0.0430702 16711680
0.410993 -0.0293514 0.0419527 16711680
0.41083 -0.0287238 0.0417341 16711680
0.410682 -0.0280911 0.0415357 16711680
0.410436 -0.0274911 0.0412052 16711680
0.410518 -0.0267809 0.0413176 16711680
0.410363 -0.0261502 0.0411099 16711680
0.410441 -0.0254412 0.0412184 16711680
0.410268 -0.0248168 0.0409851 16711680
0.410307 -0.0241212 0.0410401 16711680
0.410114 -0.0235029 0.0407814 16711680
0.410162 -0.0228047 0.0408475 16711680
0.410169 -0.0221199 0.0408603 16711680
0.41082 -0.0212233 0.0417423 16711680
0.412017 -0.0201476 0.0433651 16711680
0.412199 -0.0194074 0.0436134 16711680
0.412132 -0.0187494 0.0435237 16711680
0.411953 -0.0181276 0.0432841 16711680
0.411468 -0.0176057 0.0426288 16711680
0.414001 -0.0716387 0.0447605 16711680
0.413644 -0.0710889 0.0442789 16711680
0.412983 -0.0706562 0.0433855 16711680
0.412779 -0.0700463 0.0431111 16711680
0.412555 -0.0694436 0.0428106 16711680
0.412586 -0.0687429 0.0428544 16711680
0.412298 -0.0681646 0.0424668 16711680
0.412002 -0.067589 0.0420681 16711680
0.411888 -0.0669437 0.0419158 16711680
0.411569 -0.0663764 0.0414859 16711680
0.411475 -0.0657232 0.0413607 16711680
0.411504 -0.0650229 0.0414034 16711680
0.413413 -0.0636104 0.0439923 16711680
0.413548 -0.0628723 0.0441767 16711680
0.413437 -0.0622272 0.0440288 16711680
0.413185 -0.061635 0.04369 16711680
0.413069 -0.0609917 0.0435344 16711680
0.412463 -0.060532 0.0427155 16711680
0.411773 -0.0601029 0.0417832 16711680
0.411765 -0.0594179 0.0417749 16711680
0.411499 -0.0588295 0.0414165 16711680
0.411487 -0.058146 0.0414031 16711680
0.411349 -0.0575094 0.041219 16711680
0.411322 -0.0568318 0.0411843 16711680
0.411205 -0.0561875 0.041028 16711680
0.411194 -0.0555041 0.0410151 16711680
0.412368 -0.0543846 0.0426078 16711680
0.41198 -0.0538405 0.0420851 16711680
0.411188 -0.0534443 0.0410141 16711680
0.411652 -0.0525876 0.0416447 16711680
0.411745 -0.0518671 0.0417726 16711680
0.411408 -0.0513034 0.0413187 16711680
0.411244 -0.0506764 0.0410986 16711680
0.411222 -0.0499976 0.0410718 16711680
0.411121 -0.0493478 0.0409371 16711680
0.411097 -0.0486699 0.0409069 16711680
0.411029 -0.0480082 0.0408165 16711680
0.411019 -0.0473255 0.0408055 16711680
0.410981 -0.046653 0.0407561 16711680
0.410949 -0.0459784 0.040715 16711680
0.410948 -0.0452928 0.0407159 16711680
0.410886 -0.0446289 0.0406346 16711680
0.410782 -0.0439804 0.0404949 16711680
0.410665 -0.043336 0.0403392 16711680
0.410593 -0.0426758 0.0402437 16711680
0.410739 -0.0419385 0.0404441 16711680
0.410736 -0.0412542 0.0404416 16711680
0.410734 -0.0405695 0.0404415 16711680
0.410936 -0.0398134 0.0407175 16711680
0.4108 -0.0391761 0.0405352 16711680
0.410915 -0.0384512 0.0406927 16711680
0.410801 -0.0378062 0.0405403 16711680
0.410928 -0.0370774 0.0407145 16711680
0.410859 -0.0364168 0.0406233 16711680
0.41096 -0.0356973 0.0407628 16711680
0.410898 -0.0350346 0.0406808 16711680
0.410963 -0.034328 0.0407709 16711680
0.411124 -0.0335885 0.0409917 16711680
0.411326 -0.0328356 0.0412668 16711680
0.411969 -0.0319318 0.0421405 16711680
0.412749 -0.0309826 0.0431987 16711680
0.413 -0.0302146 0.0435418 16711680
0.412965 -0.0295449 0.0434955 16711680
0.412839 -0.0289059 0.0433272 16711680
0.412469 -0.0283495 0.042828 16711680
0.411604 -0.0279599 0.041658 16711680
0.411471 -0.0273221 0.0414807 16711680
0.411259 -0.026711 0.041195 16711680
0.411161 -0.0260614 0.0410647 16711680
0.411136 -0.0253873 0.0410328 16711680
0.411163 -0.0246958 0.0410719 16711680
0.411045 -0.024053 0.0409138 16711680
0.410834 -0.023441 0.04063 16711680
0.410881 -0.0227431 0.0406958 16711680
0.410697 -0.0221221 0.0404477 16711680
0.410777 -0.0214135 0.0405586 16711680
0.411277 -0.0205668 0.0412383 16711680
0.412557 -0.0194647 0.0429745 16711680
0.412967 -0.0186502 0.0435312 16711680
0.412777 -0.0180321 0.0432769 16711680
0.412476 -0.0174506 0.0428703 16711680
0.412315 -0.0168229 0.042654 16711680
0.414512 -0.0723361 0.0443203 16711680
0.414649 -0.0715946 0.0445081 16711680
0.414079 -0.0711272 0.0437387 16711680
0.413338 -0.0707256 0.0427358 16711680
0.413202 -0.0700893 0.0425537 16711680
0.413032 -0.0694658 0.0423255 16711680
0.413006 -0.068787 0.0422925 16711680
0.412781 -0.0681843 0.0419906 16711680
0.412528 -0.0675923 0.0416499 16711680
0.412382 -0.0669591 0.0414544 16711680
0.412089 -0.0663822 0.0410588 16711680
0.412129 -0.0656777 0.0411158 16711680
0.413853 -0.0643337 0.0434558 16711680
0.414252 -0.0634949 0.0439994 16711680
0.414031 -0.0628915 0.0437021 16711680
0.413808 -0.0622886 0.0434023 16711680
0.413125 -0.0618589 0.0424784 16711680
0.412484 -0.0614125 0.0416113 16711680
0.412326 -0.0607839 0.0413996 16711680
0.412135 -0.0601674 0.0411433 16711680
0.412082 -0.0594992 0.0410739 16711680
0.412005 -0.0588398 0.0409726 16711680
0.411963 -0.0581678 0.0409176 16711680
0.411874 -0.057513 0.0407999 16711680
0.411824 -0.0568441 0.0407335 16711680
0.41175 -0.0561839 0.0406352 16711680
0.411707 -0.0555122 0.0405794 16711680
0.41297 -0.0543592 0.0422956 16711680
0.412651 -0.0537901 0.0418653 16711680
0.41184 -0.0534012 0.0407673 16711680
0.41211 -0.0526155 0.0411355 16711680
0.412416 -0.0518169 0.0415533 16711680
0.412077 -0.0512542 0.0410959 16711680
0.411991 -0.0505991 0.0409811 16711680
0.41182 -0.0499747 0.0407519 16711680
0.411717 -0.0493256 0.0406144 16711680
0.411673 -0.048655 0.0405575 16711680
0.411631 -0.0479838 0.040503 16711680
0.411608 -0.0473058 0.0404741 16711680
0.411569 -0.0466338 0.0404234 16711680
0.411533 -0.0459608 0.0403762 16711680
0.411543 -0.045271 0.040393 16711680
0.411472 -0.0446107 0.0402983 16711680
0.411404 -0.0439492 0.0402085 16711680
0.411284 -0.0433059 0.0400488 16711680
0.411254 -0.0426309 0.0400102 16711680
0.411285 -0.0419343 0.0400548 16711680
0.411355 -0.0412242 0.0401522 16711680
0.411334 -0.0405466 0.0401249 16711680
0.411461 -0.0398166 0.0403001 16711680
0.411339 -0.0391745 0.0401366 16711680
0.411455 -0.0384491 0.040296 16711680
0.411363 -0.0377965 0.0401732 16711680
0.411496 -0.0370653 0.0403568 16711680
0.411493 -0.0363821 0.0403539 16711680
0.411535 -0.0356831 0.0404139 16711680
0.411484 -0.0350164 0.0403473 16711680
0.411508 -0.0343242 0.0403813 16711680
0.411493 -0.0336455 0.040363 16711680
0.411529 -0.0329491 0.0404145 16711680
0.411667 -0.0322182 0.0406032 16711680
0.411791 -0.0314923 0.0407736 16711680
0.412226 -0.0306607 0.0413655 16711680
0.413296 -0.0296134 0.0428197 16711680
0.413772 -0.02877 0.0434668 16711680
0.413725 -0.0281045 0.0434053 16711680
0.413621 -0.0274582 0.0432668 16711680
0.412899 -0.0270205 0.0422897 16711680
0.412193 -0.0265761 0.0413352 16711680
0.412233 -0.0258808 0.0413905 16711680
0.41189 -0.0253136 0.0409275 16711680
0.411917 -0.0246221 0.0409673 16711680
0.411708 -0.02401 0.0406853 16711680
0.411677 -0.023338 0.040646 16711680
0.411577 -0.0226894 0.0405117 16711680
0.411453 -0.0220483 0.0403465 16711680
0.411431 -0.0213735 0.040319 16711680
0.411387 -0.0207062 0.0402611 16711680
0.411605 -0.0199528 0.0405589 16711680
0.412788 -0.0188833 0.0421648 16711680
0.413394 -0.0180047 0.0429883 16711680
0.413562 -0.0172698 0.043219 16711680
0.413281 -0.0166816 0.0428399 16711680
0.415157 -0.0729814 0.0440619 16711680
0.415208 -0.072273 0.044134 16711680
0.414957 -0.0716821 0.0437968 16711680
0.414389 -0.0712142 0.043028 16711680
0.413818 -0.0707467 0.0422553 16711680
0.413672 -0.0701143 0.0420591 16711680
0.413559 -0.0694687 0.0419091 16711680
0.413474 -0.0688124 0.0417963 16711680
0.413273 -0.0682009 0.0415252 16711680
0.413033 -0.0676038 0.0412028 16711680
0.41291 -0.066962 0.0410377 16711680
0.41272 -0.0663455 0.0407826 16711680
0.414376 -0.0650252 0.0430338 16711680
0.414875 -0.0641479 0.0437133 16711680
0.414715 -0.0635218 0.0434979 16711680
0.41423 -0.0630181 0.042843 16711680
0.413329 -0.0626713 0.0416219 16711680
0.41307 -0.0620809 0.0412736 16711680
0.412868 -0.0614689 0.0410019 16711680
0.41277 -0.0608178 0.0408708 16711680
0.41268 -0.0601633 0.0407519 16711680
0.412632 -0.0594935 0.0406883 16711680
0.412549 -0.0588365 0.0405784 16711680
0.412485 -0.0581725 0.0404943 16711680
0.412427 -0.0575063 0.0404178 16711680
0.412419 -0.0568215 0.0404099 16711680
0.412302 -0.0561773 0.040253 16711680
0.412231 -0.0555161 0.0401589 16711680
0.413506 -0.0543585 0.0418926 16711680
0.413362 -0.0537253 0.0416991 16711680
0.412582 -0.0533251 0.040643 16711680
0.412647 -0.0526144 0.0407338 16711680
0.412986 -0.0518041 0.0411956 16711680
0.412702 -0.0512212 0.040813 16711680
0.412704 -0.0505341 0.040818 16711680
0.412488 -0.0499263 0.0405271 16711680
0.412369 -0.049283 0.0403684 16711680
0.412281 -0.0486285 0.0402515 16711680
0.412228 -0.0479611 0.0401828 16711680
0.412195 -0.0472869 0.04014 16711680
0.412174 -0.0466084 0.040114 16711680
0.412143 -0.0459336 0.040074 16711680
0.412108 -0.0452603 0.0400286 16711680
0.412057 -0.0445927 0.0399616 16711680
0.412066 -0.0439036 0.0399771 16711680
0.411972 -0.0432514 0.0398518 16711680
0.411998 -0.0425566 0.0398895 16711680
0.411932 -0.0418947 0.0398016 16711680
0.412012 -0.041181 0.0399128 16711680
0.411922 -0.0405274 0.0397936 16711680
0.412035 -0.0398028 0.0399487 16711680
0.411944 -0.0391496 0.0398282 16711680
0.412051 -0.0384275 0.039975 16711680
0.41205 -0.0377429 0.0399768 16711680
0.412096 -0.0370424 0.0400412 16711680
0.412089 -0.0363606 0.0400336 16711680
0.412114 -0.0356676 0.0400699 16711680
0.412144 -0.034973 0.0401132 16711680
0.412135 -0.0342921 0.0401032 16711680
0.41211 -0.0336166 0.0400723 16711680
0.41207 -0.0329466 0.0400201 16711680
0.412126 -0.0322438 0.040098 16711680
0.412105 -0.0315673 0.0400721 16711680
0.412262 -0.0308302 0.0402876 16711680
0.412258 -0.0301485 0.0402836 16711680
0.412966 -0.0292249 0.0412468 16711680
0.41382 -0.0282529 0.0424081 16711680
0.414472 -0.0273505 0.0432959 16711680
0.414457 -0.0266746 0.0432775 16711680
0.414304 -0.0260449 0.0430731 16711680
0.413322 -0.0256939 0.041742 16711680
0.412922 -0.0251464 0.0412011 16711680
0.412901 -0.0244716 0.0411749 16711680
0.412497 -0.0239245 0.0406294 16711680
0.412652 -0.023191 0.0408421 16711680
0.412347 -0.0226106 0.0404304 16711680
0.412427 -0.0219023 0.0405412 16711680
0.412156 -0.0213104 0.040175 16711680
0.412069 -0.0206574 0.0400587 16711680
0.411994 -0.0200003 0.0399595 16711680
0.412236 -0.0192393 0.04029 16711680
0.41309 -0.0182783 0.0414518 16711680
0.41409 -0.0172711 0.0428113 16711680
0.414072 -0.0165974 0.0427886 16711680
0.414055 -0.0159234 0.0427674 16711680
0.413601 -0.0153909 0.0421546 16711680
0.415995 -0.0728624 0.0440696 16711680
0.415638 -0.0723134 0.0435871 16711680
0.415132 -0.0718217 0.0429032 16711680
0.414658 -0.0713174 0.0422606 16711680
0.414298 -0.0707678 0.041775 16711680
0.414172 -0.0701276 0.0416057 16711680
0.41409 -0.0694701 0.0414975 16711680
0.413958 -0.068832 0.0413206 16711680
0.413794 -0.0682062 0.0410999 16711680
0.413569 -0.0676034 0.0407974 16711680
0.413463 -0.0669551 0.0406555 16711680
0.414298 -0.065947 0.0417931 16711680
0.41551 -0.0647964 0.0434431 16711680
0.415382 -0.0641582 0.0432709 16711680
0.415014 -0.0636108 0.0427736 16711680
0.413983 -0.0633141 0.0413756 16711680
0.413659 -0.0627488 0.0409378 16711680
0.413602 -0.0620818 0.040864 16711680
0.413425 -0.0614604 0.0406263 16711680
0.413368 -0.0607938 0.0405514 16711680
0.41324 -0.060154 0.0403794 16711680
0.413182 -0.0594875 0.0403038 16711680
0.413092 -0.0588333 0.0401839 16711680
0.413081 -0.0581495 0.0401719 16711680
0.413008 -0.0574889 0.0400753 16711680
0.413039 -0.05679 0.0401192 16711680
0.412862 -0.0561679 0.0398817 16711680
0.412855 -0.0554831 0.0398742 16711680
0.413936 -0.0543968 0.0413462 16711680
0.414234 -0.0536007 0.0417535 16711680
0.413566 -0.0531598 0.0408487 16711680
0.413156 -0.0526236 0.0402939 16711680
0.413602 -0.0517739 0.0409021 16711680
0.413354 -0.0511783 0.0405674 16711680
0.413349 -0.0504935 0.0405641 16711680
0.413111 -0.0498938 0.040243 16711680
0.413036 -0.0492347 0.040144 16711680
0.412912 -0.0485936 0.0399771 16711680
0.412874 -0.047921 0.0399283 16711680
0.412803 -0.0472606 0.0398339 16711680
0.412818 -0.0465692 0.0398567 16711680
0.41275 -0.0459073 0.0397679 16711680
0.412731 -0.0452284 0.0397443 16711680
0.412652 -0.044571 0.0396389 16711680
0.412719 -0.0438614 0.0397325 16711680
0.412612 -0.0432139 0.0395899 16711680
0.412695 -0.042499 0.0397049 16711680
0.412585 -0.0418525 0.0395584 16711680
0.41266 -0.0411409 0.0396624 16711680
0.41258 -0.040484 0.0395561 16711680
0.412675 -0.0397654 0.039688 16711680
0.412576 -0.0391153 0.0395559 16711680
0.412665 -0.0383995 0.0396788 16711680
0.412646 -0.0377215 0.0396553 16711680
0.412689 -0.0370218 0.0397172 16711680
0.412709 -0.0363306 0.039746 16711680
0.412695 -0.0356511 0.0397298 16711680
0.412738 -0.034952 0.039791 16711680
0.412691 -0.0342844 0.0397292 16711680
0.412763 -0.0335759 0.0398287 16711680
0.412674 -0.0329227 0.03971 16711680
0.412746 -0.0322141 0.0398114 16711680
0.412637 -0.0315679 0.0396653 16711680
0.412713 -0.0308586 0.0397704 16711680
0.412638 -0.0302007 0.0396715 16711680
0.412754 -0.0294781 0.0398314 16711680
0.412886 -0.0287502 0.0400133 16711680
0.413828 -0.0277485 0.0412958 16711680
0.414892 -0.0267073 0.0427433 16711680
0.415072 -0.0259657 0.0429896 16711680
0.415011 -0.0253053 0.0429095 16711680
0.414651 -0.0247453 0.0424229 16711680
0.413821 -0.024342 0.0412979 16711680
0.413591 -0.0237375 0.0409871 16711680
0.413482 -0.0230923 0.0408416 16711680
0.413152 -0.0225204 0.040396 16711680
0.413225 -0.0218147 0.0404968 16711680
0.412904 -0.0212393 0.0400636 16711680
0.412951 -0.0205423 0.0401295 16711680
0.412703 -0.0199424 0.0397954 16711680
0.412762 -0.0192417 0.0398771 16711680
0.412643 -0.0185993 0.0397182 16711680
0.41332 -0.0176966 0.0406406 16711680
0.414557 -0.0166128 0.0423223 16711680
0.414835 -0.0158425 0.0427034 16711680
0.414578 -0.0152468 0.0423559 16711680
0.414526 -0.0145842 0.0422875 16711680
0.416284 -0.0736466 0.043328 16711680
0.416552 -0.0728533 0.0436954 16711680
0.416064 -0.0723553 0.0430349 16711680
0.415349 -0.0719453 0.042065 16711680
0.415056 -0.0713701 0.0416696 16711680
0.414798 -0.0707811 0.0413218 16711680
0.414775 -0.0701012 0.041292 16711680
0.414625 -0.0694698 0.041092 16711680
0.414503 -0.068828 0.0409282 16711680
0.414322 -0.0682088 0.0406841 16711680
0.414098 -0.0676055 0.0403832 16711680
0.414303 -0.0668381 0.0406642 16711680
0.416116 -0.0654562 0.0431325 16711680
0.416071 -0.064786 0.0430747 16711680
0.415661 -0.064255 0.0425196 16711680
0.414704 -0.0639313 0.0412209 16711680
0.414427 -0.0633484 0.0408466 16711680
0.414242 -0.0627302 0.0405983 16711680
0.414197 -0.0620591 0.0405395 16711680
0.413998 -0.0614461 0.0402716 16711680
0.413963 -0.0607712 0.0402268 16711680
0.413798 -0.0601453 0.0400046 16711680
0.413774 -0.0594662 0.0399753 16711680
0.413661 -0.0588207 0.0398237 16711680
0.413728 -0.0581077 0.0399182 16711680
0.413621 -0.0574599 0.0397754 16711680
0.413666 -0.0567556 0.039839 16711680
0.413488 -0.056134 0.0396001 16711680
0.413502 -0.0554413 0.0396218 16711680
0.413856 -0.0546235 0.0401051 16711680
0.41508 -0.053486 0.041772 16711680
0.414395 -0.0530516 0.040844 16711680
0.413714 -0.0526149 0.0399207 16711680
0.414184 -0.0517564 0.0405618 16711680
0.41405 -0.0511192 0.040382 16711680
0.413988 -0.0504553 0.0403013 16711680
0.41375 -0.0498557 0.0399802 16711680
0.413715 -0.0491822 0.0399355 16711680
0.413542 -0.0485587 0.0397024 16711680
0.413586 -0.0478567 0.039765 16711680
0.413439 -0.0472239 0.039567 16711680
0.413467 -0.0465277 0.0396085 16711680
0.413341 -0.0458871 0.0394396 16711680
0.413366 -0.0451924 0.0394757 16711680
0.413291 -0.0445337 0.0393758 16711680
0.41337 -0.0438196 0.0394866 16711680
0.413236 -0.0431818 0.0393074 16711680
0.413336 -0.0424612 0.0394448 16711680
0.413259 -0.041803 0.0393436 16711680
0.41331 -0.0410999 0.039415 16711680
0.413153 -0.0404702 0.0392045 16711680
0.413268 -0.0397447 0.0393633 16711680
0.413242 -0.0390691 0.0393301 16711680
0.413279 -0.0383716 0.0393823 16711680
0.413321 -0.0376721 0.039443 16711680
0.413349 -0.0369779 0.0394834 16711680
0.413418 -0.0362698 0.0395789 16711680
0.413321 -0.0356191 0.0394505 16711680
0.413375 -0.0349165 0.0395261 16711680
0.413291 -0.0342615 0.0394148 16711680
0.413358 -0.0335545 0.0395087 16711680
0.41329 -0.0328943 0.0394181 16711680
0.413366 -0.0321845 0.0395242 16711680
0.413239 -0.0315445 0.0393544 16711680
0.413321 -0.030833 0.0394683 16711680
0.413259 -0.0301709 0.0393863 16711680
0.413304 -0.0294724 0.0394503 16711680
0.413154 -0.0288404 0.0392479 16711680
0.41326 -0.0281213 0.0393951 16711680
0.414323 -0.0270794 0.0408427 16711680
0.415602 -0.0259665 0.0425838 16711680
0.415719 -0.0252463 0.0427454 16711680
0.415499 -0.0246395 0.042449 16711680
0.415347 -0.0240098 0.0422444 16711680
0.414994 -0.0234468 0.0417676 16711680
0.414272 -0.0230066 0.0407879 16711680
0.414144 -0.022368 0.0406159 16711680
0.413927 -0.0217586 0.0403237 16711680
0.413736 -0.0211403 0.0400671 16711680
0.413733 -0.0204603 0.0400642 16711680
0.413484 -0.0198611 0.0397279 16711680
0.413571 -0.0191511 0.0398492 16711680
0.413244 -0.018577 0.0394071 16711680
0.41342 -0.0178382 0.0396491 16711680
0.41391 -0.0169973 0.0403177 16711680
0.415295 -0.0158659 0.0422037 16711680
0.41542 -0.0151462 0.0423753 16711680
0.415355 -0.0144881 0.0422891 16711680
0.414976 -0.0139315 0.0417758 16711680
0.417097 -0.0742255 0.0432999 16711680
0.417128 -0.073525 0.0433445 16711680
0.417082 -0.0728547 0.0432845 16711680
0.416405 -0.0724308 0.0423656 16711680
0.415707 -0.0720138 0.0414193 16711680
0.415542 -0.0713889 0.0411973 16711680
0.415366 -0.0707683 0.04096 16711680
0.415328 -0.070094 0.0409107 16711680
0.415155 -0.0694719 0.0406779 16711680
0.414984 -0.0688486 0.0404485 16711680
0.41485 -0.0682113 0.0402687 16711680
0.41478 -0.0675489 0.0401772 16711680
0.416777 -0.0660947 0.0428977 16711680
0.416864 -0.0653739 0.0430198 16711680
0.416564 -0.0648014 0.0426142 16711680
0.41565 -0.0644624 0.0413729 16711680
0.415122 -0.0639754 0.0406566 16711680
0.415032 -0.0633215 0.0405368 16711680
0.414874 -0.0626934 0.0403242 16711680
0.414808 -0.0620301 0.040238 16711680
0.414605 -0.0614187 0.0399643 16711680
0.41454 -0.0607552 0.0398787 16711680
0.414386 -0.0601253 0.0396712 16711680
0.414408 -0.0594291 0.0397038 16711680
0.414318 -0.0587747 0.039585 16711680
0.414372 -0.058067 0.0396607 16711680
0.414256 -0.0574225 0.0395058 16711680
0.414315 -0.056713 0.0395892 16711680
0.414143 -0.0560894 0.0393579 16711680
0.414129 -0.0554074 0.0393406 16711680
0.414168 -0.0547055 0.0393972 16711680
0.41579 -0.0534209 0.0416075 16711680
0.415097 -0.05299 0.0406665 16711680
0.414198 -0.0526337 0.0394454 16711680
0.41486 -0.0517043 0.0403504 16711680
0.414855 -0.0510203 0.0403451 16711680
0.414639 -0.0504127 0.0400552 16711680
0.414405 -0.0498118 0.039739 16711680
0.414412 -0.0491233 0.0397507 16711680
0.414169 -0.0485251 0.0394235 16711680
0.414261 -0.047806 0.0395507 16711680
0.414059 -0.047193 0.0392783 16711680
0.414131 -0.0464811 0.0393791 16711680
0.413984 -0.0458481 0.0391821 16711680
0.414046 -0.0451404 0.0392683 16711680
0.413927 -0.044497 0.0391101 16711680
0.414036 -0.0437726 0.0392612 16711680
0.413914 -0.0431308 0.0390975 16711680
0.413995 -0.0424168 0.03921 16711680
0.413946 -0.0417491 0.0391455 16711680
0.413947 -0.0410637 0.0391495 16711680
0.413835 -0.040418 0.0390009 16711680
0.413917 -0.0397044 0.039114 16711680
0.413918 -0.0390193 0.0391183 16711680
0.413914 -0.038336 0.0391158 16711680
0.413995 -0.0376233 0.0392284 16711680
0.413978 -0.0369448 0.0392082 16711680
0.414023 -0.0362449 0.0392721 16711680
0.413957 -0.0355838 0.0391848 16711680
0.414037 -0.034872 0.0392966 16711680
0.413927 -0.0342262 0.0391492 16711680
0.414033 -0.0335059 0.0392957 16711680
0.41389 -0.0328715 0.0391042 16711680
0.413983 -0.0321558 0.0392339 16711680
0.413878 -0.0315087 0.0390923 16711680
0.413952 -0.0308 0.0391959 16711680
0.413879 -0.0301417 0.0390987 16711680
0.413897 -0.0294525 0.0391259 16711680
0.413744 -0.0288211 0.0389215 16711680
0.413763 -0.0281317 0.0389497 16711680
0.414729 -0.0271225 0.0402662 16711680
0.416076 -0.025986 0.0421025 16711680
0.416086 -0.0253018 0.0421183 16711680
0.416068 -0.0246271 0.0420965 16711680
0.416292 -0.0238712 0.0424048 16711680
0.416101 -0.0232549 0.0421466 16711680
0.415616 -0.0227363 0.0414886 16711680
0.41521 -0.0221905 0.0409395 16711680
0.414636 -0.0217001 0.0401608 16711680
0.414552 -0.0210469 0.0400481 16711680
0.414472 -0.0203922 0.0399417 16711680
0.414369 -0.0197449 0.0398049 16711680
0.414315 -0.0190818 0.0397331 16711680
0.414046 -0.0184891 0.0393691 16711680
0.414153 -0.017773 0.0395174 16711680
0.414021 -0.0171349 0.0393414 16711680
0.414372 -0.0163399 0.0398207 16711680
0.415728 -0.0152188 0.041669 16711680
0.416099 -0.0144192 0.0421767 16711680
0.415926 -0.0137964 0.0419431 16711680
0.415729 -0.0131809 0.0416776 16711680
0.41778 -0.0748554 0.0430939 16711680
0.418002 -0.0740798 0.043399 16711680
0.417719 -0.0735024 0.043017 16711680
0.417463 -0.0729143 0.0426711 16711680
0.416751 -0.0725043 0.0417031 16711680
0.416192 -0.0720333 0.0409445 16711680
0.41607 -0.0713915 0.0407816 16711680
0.415947 -0.0707504 0.0406163 16711680
0.415873 -0.0700899 0.0405188 16711680
0.415691 -0.0694712 0.0402738 16711680
0.415537 -0.0688415 0.0400672 16711680
0.415438 -0.0681905 0.0399357 16711680
0.416636 -0.0670412 0.0415705 16711680
0.417464 -0.0660357 0.0427017 16711680
0.417341 -0.0653958 0.0425366 16711680
0.416718 -0.0649465 0.0416908 16711680
0.415864 -0.0645843 0.0405312 16711680
0.415675 -0.0639685 0.0402751 16711680
0.415632 -0.0632968 0.0402195 16711680
0.415457 -0.0626749 0.0399845 16711680
0.415374 -0.0620183 0.0398742 16711680
0.415191 -0.0613994 0.0396281 16711680
0.415168 -0.0607201 0.0395992 16711680
0.415024 -0.0600863 0.0394062 16711680
0.415063 -0.0593838 0.0394621 16711680
0.414991 -0.0587229 0.0393677 16711680
0.414983 -0.0580384 0.0393589 16711680
0.414879 -0.0573898 0.0392197 16711680
0.414896 -0.0566958 0.0392463 16711680
0.41477 -0.0560552 0.0390775 16711680
0.414733 -0.0553818 0.0390291 16711680
0.414709 -0.0547034 0.0389994 16711680
0.4164 -0.0533927 0.0413064 16711680
0.415925 -0.0528816 0.0406628 16711680
0.414768 -0.0526205 0.0390886 16711680
0.415368 -0.0517141 0.0399086 16711680
0.415465 -0.0509924 0.0400437 16711680
0.415346 -0.0503497 0.0398852 16711680
0.415122 -0.0497455 0.0395821 16711680
0.415121 -0.0490596 0.0395845 16711680
0.414886 -0.048459 0.0392667 16711680
0.414953 -0.0477487 0.0393611 16711680
0.414722 -0.0471465 0.0390487 16711680
0.414859 -0.0464112 0.0392388 16711680
0.414659 -0.0457975 0.0389688 16711680
0.414772 -0.0450716 0.0391246 16711680
0.414625 -0.0444387 0.0389272 16711680
0.414732 -0.0437149 0.0390763 16711680
0.414665 -0.0430535 0.0389881 16711680
0.414665 -0.0423682 0.0389911 16711680
0.414594 -0.0417086 0.0388964 16711680
0.414621 -0.041014 0.0389359 16711680
0.414588 -0.0403409 0.0388935 16711680
0.414569 -0.0396628 0.0388705 16711680
0.414655 -0.038948 0.0389901 16711680
0.41463 -0.0382721 0.0389596 16711680
0.414723 -0.0375552 0.0390891 16711680
0.414605 -0.0369122 0.0389308 16711680
0.41472 -0.036188 0.0390903 16711680
0.414599 -0.0355461 0.038928 16711680
0.414686 -0.0348321 0.0390489 16711680
0.414597 -0.0341792 0.0389304 16711680
0.414671 -0.0334698 0.0390345 16711680
0.41453 -0.032835 0.0388442 16711680
0.414644 -0.0321121 0.0390029 16711680
0.414529 -0.0314684 0.0388485 16711680
0.414563 -0.0307735 0.0388974 16711680
0.414472 -0.0301212 0.0387768 16711680
0.414509 -0.0294255 0.0388297 16711680
0.414393 -0.028782 0.0386742 16711680
0.414457 -0.0280775 0.0387639 16711680
0.415998 -0.0268734 0.0408659 16711680
0.416556 -0.0260037 0.0416282 16711680
0.416063 -0.0254887 0.0409596 16711680
0.416079 -0.0248021 0.040984 16711680
0.416597 -0.0239473 0.0416932 16711680
0.416855 -0.0231805 0.0420471 16711680
0.417051 -0.0224352 0.0423157 16711680
0.416573 -0.0219141 0.0416681 16711680
0.415533 -0.0215793 0.0402535 16711680
0.415392 -0.0209452 0.0400636 16711680
0.415262 -0.0203073 0.039889 16711680
0.415305 -0.019612 0.0399508 16711680
0.415104 -0.0189976 0.0396788 16711680
0.415058 -0.0183319 0.0396188 16711680
0.414906 -0.0177009 0.0394145 16711680
0.414802 -0.0170542 0.0392751 16711680
0.414762 -0.0163865 0.0392234 16711680
0.415178 -0.0155705 0.0397933 16711680
0.416565 -0.0144407 0.0416849 16711680
0.416957 -0.0136347 0.0422223 16711680
0.416605 -0.01307 0.0417441 16711680
0.416202 -0.0125208 0.0411984 16711680
0.418677 -0.0754004 0.0431808 16711680
0.41872 -0.0746953 0.043242 16711680
0.418522 -0.0740851 0.0429747 16711680
0.418019 -0.0735941 0.0422922 16711680
0.417545 -0.0730911 0.0416492 16711680
0.417098 -0.0725771 0.0410426 16711680
0.416725 -0.0720338 0.0405364 16711680
0.416684 -0.0713605 0.0404837 16711680
0.416513 -0.0707378 0.040254 16711680
0.416436 -0.0700787 0.0401517 16711680
0.416244 -0.0694642 0.0398922 16711680
0.416093 -0.0688331 0.0396904 16711680
0.416205 -0.068101 0.0398459 16711680
0.418228 -0.0666344 0.0426073 16711680
0.418032 -0.0660226 0.0423428 16711680
0.417461 -0.0655541 0.0415673 16711680
0.416673 -0.0651676 0.0404962 16711680
0.416425 -0.0645743 0.0401609 16711680
0.416307 -0.0639311 0.0400032 16711680
0.41624 -0.0632685 0.0399151 16711680
0.416033 -0.0626592 0.0396349 16711680
0.415953 -0.0620016 0.0395288 16711680
0.4158 -0.0613712 0.0393237 16711680
0.415785 -0.060689 0.0393058 16711680
0.415653 -0.0600507 0.0391295 16711680
0.415673 -0.0593556 0.0391588 16711680
0.415607 -0.0586927 0.0390718 16711680
0.415625 -0.0579982 0.0390997 16711680
0.415518 -0.0573505 0.0389572 16711680
0.415503 -0.056669 0.0389386 16711680
0.415333 -0.0560447 0.0387101 16711680
0.415351 -0.0553508 0.0387375 16711680
0.415305 -0.0546804 0.0386783 16711680
0.416988 -0.0533727 0.0409757 16711680
0.41671 -0.0527892 0.0406001 16711680
0.415646 -0.0524941 0.0391525 16711680
0.415929 -0.0517039 0.0395411 16711680
0.416116 -0.0509493 0.0397993 16711680
0.416011 -0.050302 0.0396581 16711680
0.415806 -0.0496907 0.039382 16711680
0.415813 -0.0490022 0.0393945 16711680
0.41564 -0.0483792 0.0391617 16711680
0.415704 -0.0476702 0.0392519 16711680
0.415448 -0.0470773 0.0389048 16711680
0.415532 -0.0463611 0.039023 16711680
0.415424 -0.0457147 0.0388777 16711680
0.415503 -0.0450009 0.0389881 16711680
0.415373 -0.0443619 0.0388149 16711680
0.415376 -0.0436755 0.0388219 16711680
0.415385 -0.0429873 0.0388365 16711680
0.415348 -0.0423155 0.0387887 16711680
0.415303 -0.0416464 0.0387306 16711680
0.415308 -0.04096 0.0387393 16711680
0.415381 -0.0402494 0.038842 16711680
0.415291 -0.0395964 0.0387228 16711680
0.415363 -0.0388866 0.0388237 16711680
0.415278 -0.0382321 0.0387106 16711680
0.415392 -0.037508 0.0388684 16711680
0.415293 -0.0368582 0.0387372 16711680
0.415408 -0.0361344 0.0388957 16711680
0.415287 -0.0354923 0.0387346 16711680
0.415357 -0.0347843 0.0388323 16711680
0.41522 -0.0341482 0.0386479 16711680
0.415317 -0.0334309 0.0387836 16711680
0.415194 -0.0327899 0.0386187 16711680
0.415289 -0.0320738 0.038751 16711680
0.415218 -0.031415 0.0386564 16711680
0.4152 -0.0307379 0.038635 16711680
0.41517 -0.0300652 0.0385963 16711680
0.415113 -0.0294017 0.0385212 16711680
0.415057 -0.0287375 0.0384486 16711680
0.416283 -0.027639 0.0401223 16711680
0.417213 -0.0266423 0.0413938 16711680
0.416966 -0.0260449 0.0410594 16711680
0.416207 -0.0256197 0.0400268 16711680
0.41612 -0.0249673 0.039911 16711680
0.416026 -0.0243173 0.0397861 16711680
0.416703 -0.0234095 0.0407115 16711680
0.417593 -0.0224315 0.0419286 16711680
0.41763 -0.0217395 0.0419807 16711680
0.41739 -0.0211392 0.041657 16711680
0.416499 -0.0207548 0.0404439 16711680
0.416002 -0.0202385 0.0397698 16711680
0.415971 -0.0195682 0.0397294 16711680
0.415746 -0.0189615 0.0394257 16711680
0.415896 -0.0182315 0.0396329 16711680
0.415634 -0.0176369 0.039278 16711680
0.415623 -0.0169598 0.0392665 16711680
0.415407 -0.0163498 0.0389744 16711680
0.415432 -0.0156612 0.0390106 16711680
0.415685 -0.0148988 0.039358 16711680
0.417413 -0.0136592 0.0417174 16711680
0.41748 -0.0129588 0.0418118 16711680
0.417379 -0.0123131 0.041676 16711680
0.416791 -0.0118237 0.0408765 16711680
0.419457 -0.0759917 0.0431073 16711680
0.419383 -0.0753324 0.0430099 16711680
0.41908 -0.0747638 0.042599 16711680
0.418878 -0.0741548 0.0423269 16711680
0.418268 -0.0737061 0.0414968 16711680
0.417744 -0.0732226 0.040785 16711680
0.417543 -0.0726122 0.0405135 16711680
0.417312 -0.0720131 0.0402021 16711680
0.417253 -0.071347 0.0401248 16711680
0.417059 -0.0707335 0.0398628 16711680
0.41699 -0.0700711 0.0397719 16711680
0.416811 -0.0694514 0.0395308 16711680
0.416807 -0.0687641 0.0395278 16711680
0.418637 -0.0673693 0.0420301 16711680
0.418892 -0.066584 0.0423807 16711680
0.41856 -0.0660246 0.0419302 16711680
0.417516 -0.0657374 0.0405087 16711680
0.417113 -0.0652037 0.0399615 16711680
0.417055 -0.0645378 0.0398853 16711680
0.416967 -0.0638832 0.0397689 16711680
0.416827 -0.0632485 0.0395806 16711680
0.416656 -0.0626257 0.0393496 16711680
0.416558 -0.0619747 0.0392195 16711680
0.41642 -0.0613389 0.0390345 16711680
0.416393 -0.0606615 0.0389997 16711680
0.416284 -0.0600144 0.0388551 16711680
0.416302 -0.0593199 0.0388825 16711680
0.416242 -0.0586547 0.0388041 16711680
0.416243 -0.057967 0.0388077 16711680
0.416171 -0.0573065 0.0387125 16711680
0.416145 -0.0566286 0.0386809 16711680
0.416087 -0.055963 0.0386045 16711680
0.415973 -0.0553183 0.0384512 16711680
0.415904 -0.0546566 0.0383602 16711680
0.417466 -0.0533931 0.0404952 16711680
0.417456 -0.0527107 0.0404857 16711680
0.416648 -0.0523221 0.0393856 16711680
0.416542 -0.0516748 0.0392441 16711680
0.416949 -0.0508401 0.0398017 16711680
0.416633 -0.0502699 0.0393733 16711680
0.416579 -0.0496037 0.0393027 16711680
0.416476 -0.0489552 0.0391661 16711680
0.416422 -0.0482894 0.0390942 16711680
0.416388 -0.0476159 0.0390515 16711680
0.416268 -0.0469739 0.0388904 16711680
0.416211 -0.0463091 0.038815 16711680
0.4162 -0.0456277 0.0388031 16711680
0.416177 -0.0449503 0.0387756 16711680
0.416149 -0.0442755 0.0387393 16711680
0.41607 -0.0436183 0.0386356 16711680
0.416125 -0.0429139 0.0387124 16711680
0.416036 -0.0422605 0.0385948 16711680
0.416077 -0.0415612 0.0386535 16711680
0.415953 -0.0409206 0.0384866 16711680
0.416102 -0.040183 0.038694 16711680
0.415993 -0.039537 0.038548 16711680
0.416126 -0.0388061 0.0387316 16711680
0.415968 -0.0381772 0.0385194 16711680
0.416074 -0.0374561 0.0386664 16711680
0.415978 -0.0368056 0.0385382 16711680
0.416076 -0.0360872 0.0386759 16711680
0.415985 -0.0354354 0.0385536 16711680
0.415999 -0.0347467 0.0385762 16711680
0.415892 -0.0341004 0.0384322 16711680
0.415965 -0.0333914 0.0385358 16711680
0.415892 -0.0327332 0.0384388 16711680
0.415935 -0.0320353 0.0384998 16711680
0.415927 -0.0313548 0.038492 16711680
