# .PCD v0.7 - Point Cloud Data file format
VERSION 0.7
FIELDS x y z rgb
SIZE 4 4 4 4
TYPE F F F F
COUNT 1 1 1 1
WIDTH 1235
HEIGHT 1
VIEWPOINT 0 0 0 1 0 0 0
POINTS 1235
DATA ascii
0.384782 -0.0766485 0.0282329 16711680
0.385154 -0.0758046 0.0287292 16711680
0.385736 -0.0748822 0.0295024 16711680
0.385079 -0.0744301 0.0286299 16711680
0.384366 -0.0739986 0.0276819 16711680
0.384878 -0.0731033 0.0283637 16711680
0.384972 -0.0723667 0.0284888 16711680
0.384476 -0.0718522 0.0278295 16711680
0.383667 -0.0714545 0.0267543 16711680
0.383328 -0.0708793 0.0263051 16711680
0.38292 -0.0703298 0.0257628 16711680
0.382366 -0.0698343 0.0250263 16711680
0.377968 -0.0412295 0.0191956 16711680
0.377682 -0.0406255 0.0188162 16711680
0.377552 -0.0399686 0.0186439 16711680
0.377616 -0.0392462 0.0187289 16711680
0.37738 -0.0386251 0.0184152 16711680
0.376563 -0.0381989 0.0173295 16711680
0.375578 -0.0378278 0.0160208 16711680
0.37566 -0.0370986 0.0161295 16711680
0.37483 -0.036674 0.0150261 16711680
0.37456 -0.0360617 0.0146672 16711680
0.374391 -0.0354154 0.014443 16711680
0.374243 -0.0347621 0.0142468 16711680
0.373954 -0.0341553 0.0138628 16711680
0.373715 -0.0335319 0.0135449 16711680
0.373727 -0.0328254 0.0135614 16711680
0.373466 -0.0322085 0.0132152 16711680
0.373495 -0.0314966 0.0132542 16711680
0.374071 -0.0306062 0.014019 16711680
0.374357 -0.0298109 0.0144002 16711680
0.373621 -0.0293491 0.0134214 16711680
0.373643 -0.0286399 0.0134516 16711680
0.374243 -0.0277439 0.0142494 16711680
0.373659 -0.0272314 0.0134732 16711680
0.372782 -0.0268125 0.0123078 16711680
0.371989 -0.0263654 0.0112538 16711680
0.371687 -0.0257599 0.0108519 16711680
0.371443 -0.0251352 0.0105281 16711680
0.371161 -0.0245224 0.0101538 16711680
0.371071 -0.0238484 0.0100335 16711680
0.389216 -0.0961913 0.0329748 16711680
0.390702 -0.0948879 0.0349535 16711680
0.392563 -0.0934358 0.037431 16711680
0.392423 -0.0927922 0.0372456 16711680
0.391724 -0.0923732 0.036316 16711680
0.390321 -0.0922358 0.0344489 16711680
0.390329 -0.0915313 0.0344603 16711680
0.391831 -0.0902301 0.0364603 16711680
0.390739 -0.0899658 0.0350075 16711680
0.389828 -0.0896276 0.0337962 16711680
0.389652 -0.0889966 0.0335622 16711680
0.390236 -0.088064 0.0343397 16711680
0.39075 -0.0871599 0.0350251 16711680
0.388969 -0.0857607 0.0326568 16711680
0.389 -0.0850475 0.0326988 16711680
0.388581 -0.0845109 0.0321411 16711680
0.388122 -0.0839891 0.0315313 16711680
0.387968 -0.0833478 0.0313274 16711680
0.387452 -0.0828476 0.0306408 16711680
0.387057 -0.0822993 0.0301166 16711680
0.387038 -0.0816051 0.0300912 16711680
0.386694 -0.0810365 0.0296342 16711680
0.386715 -0.0803265 0.029663 16711680
0.386453 -0.0797258 0.0293151 16711680
0.386402 -0.079044 0.0292467 16711680
0.38612 -0.0784504 0.028873 16711680
0.386146 -0.0777387 0.028908 16711680
0.3857 -0.0772078 0.0283147 16711680
0.385664 -0.0765196 0.0282675 16711680
0.385846 -0.0757484 0.0285107 16711680
0.386376 -0.0748457 0.0292159 16711680
0.386056 -0.0742661 0.0287907 16711680
0.385416 -0.0738073 0.0279398 16711680
0.385443 -0.0730957 0.0279763 16711680
0.385812 -0.0722553 0.0284677 16711680
0.385244 -0.0717679 0.0277132 16711680
0.384711 -0.0712671 0.0270036 16711680
0.384373 -0.0706923 0.0265541 16711680
0.383893 -0.07017 0.0259166 16711680
0.383677 -0.0695485 0.0256301 16711680
0.383402 -0.0689493 0.025264 16711680
0.382981 -0.0684038 0.0247041 16711680
0.382969 -0.0677058 0.0246892 16711680
0.382539 -0.067163 0.0241171 16711680
0.38182 -0.0667259 0.0231614 16711680
0.381215 -0.0662461 0.0223572 16711680
0.38042 -0.0658356 0.0212989 16711680
0.382732 -0.0593742 0.0243794 16711680
0.383686 -0.0583291 0.0256498 16711680
0.385797 -0.056869 0.0284594 16711680
0.386873 -0.055784 0.0298924 16711680
0.387105 -0.0550038 0.0302007 16711680
0.38724 -0.0542584 0.0303811 16711680
0.387212 -0.0535715 0.0303446 16711680
0.387089 -0.0529188 0.0301807 16711680
0.387054 -0.0522345 0.0301348 16711680
0.387024 -0.0515484 0.0300959 16711680
0.387077 -0.0508332 0.0301669 16711680
0.386956 -0.0501799 0.0300053 16711680
0.386862 -0.0495165 0.0298816 16711680
0.386872 -0.0488168 0.0298949 16711680
0.386795 -0.0481476 0.0297933 16711680
0.386645 -0.0475039 0.0295945 16711680
0.386166 -0.0469754 0.0289568 16711680
0.385549 -0.0464942 0.0281361 16711680
0.3845 -0.0461623 0.0267404 16711680
0.384016 -0.045633 0.0260966 16711680
0.382896 -0.0453229 0.0246078 16711680
0.381334 -0.0451642 0.0225292 16711680
0.381018 -0.0445738 0.0221087 16711680
0.382106 -0.0435001 0.0235568 16711680
0.382189 -0.0427728 0.0236685 16711680
0.381153 -0.0424291 0.0222902 16711680
0.380367 -0.0419985 0.0212448 16711680
0.379276 -0.041671 0.0197926 16711680
0.378594 -0.0412026 0.0188857 16711680
0.378593 -0.0405023 0.0188845 16711680
0.378152 -0.0399511 0.0182978 16711680
0.378097 -0.0392689 0.0182248 16711680
0.377902 -0.0386336 0.0179669 16711680
0.377615 -0.0380294 0.0175848 16711680
0.377458 -0.0373812 0.0173764 16711680
0.376608 -0.0369648 0.016246 16711680
0.375615 -0.036595 0.0149248 16711680
0.375192 -0.0360339 0.0143623 16711680
0.375013 -0.0353912 0.0141245 16711680
0.374764 -0.0347716 0.0137931 16711680
0.374593 -0.0341258 0.0135658 16711680
0.374283 -0.0335257 0.013154 16711680
0.374189 -0.0328541 0.0130296 16711680
0.374064 -0.0321929 0.0128626 16711680
0.374146 -0.0314634 0.012973 16711680
0.374491 -0.0306482 0.0134326 16711680
0.375095 -0.0297493 0.0142361 16711680
0.374243 -0.0293255 0.0131027 16711680
0.374189 -0.028641 0.0130316 16711680
0.374795 -0.027743 0.0138379 16711680
0.374256 -0.0272162 0.0131205 16711680
0.373506 -0.0267566 0.0121226 16711680
0.372655 -0.0263282 0.0109917 16711680
0.372389 -0.0257114 0.0106369 16711680
0.372103 -0.0251004 0.0102568 16711680
0.371802 -0.0244936 0.00985754 16711680
0.371771 -0.0238008 0.00981605 16711680
0.371564 -0.0231639 0.00954127 16711680
0.391214 -0.0949003 0.0344988 16711680
0.393043 -0.0934607 0.0369357 16711680
0.39327 -0.0926692 0.0372393 16711680
0.392781 -0.0921662 0.0365887 16711680
0.391716 -0.0918938 0.0351703 16711680
0.39054 -0.091664 0.0336055 16711680
0.392602 -0.0901386 0.0363523 16711680
0.391637 -0.0898239 0.0350676 16711680
0.390934 -0.0894034 0.0341322 16711680
0.390466 -0.0888886 0.0335101 16711680
0.390993 -0.0879788 0.0342125 16711680
0.39157 -0.0870502 0.0349811 16711680
0.391348 -0.0864381 0.034686 16711680
0.390103 -0.0862287 0.0330297 16711680
0.388878 -0.0860102 0.0313983 16711680
0.38964 -0.0850096 0.0324134 16711680
0.389529 -0.0843522 0.0322665 16711680
0.389017 -0.0838515 0.0315857 16711680
0.388775 -0.0832449 0.0312642 16711680
0.388278 -0.0827375 0.0306028 16711680
0.388258 -0.0820442 0.030576 16711680
0.387877 -0.0814908 0.0300691 16711680
0.387473 -0.0809458 0.0295317 16711680
0.387415 -0.0802663 0.0294561 16711680
0.387235 -0.0796343 0.0292166 16711680
0.387199 -0.0789465 0.0291698 16711680
0.386919 -0.0783528 0.0287968 16711680
0.386913 -0.0776534 0.02879 16711680
0.386558 -0.0770879 0.0283173 16711680
0.386611 -0.0763658 0.0283895 16711680
0.386578 -0.0756771 0.0283457 16711680
0.387102 -0.0747763 0.0290447 16711680
0.387109 -0.0740728 0.029055 16711680
0.386402 -0.0736403 0.0281128 16711680
0.385866 -0.0731418 0.0273995 16711680
0.386612 -0.0721586 0.0283948 16711680
0.386121 -0.0716429 0.0277411 16711680
0.385804 -0.0710609 0.02732 16711680
0.385207 -0.0705839 0.0265245 16711680
0.38478 -0.0700423 0.0259564 16711680
0.384682 -0.0693772 0.0258267 16711680
0.384246 -0.068838 0.0252466 16711680
0.384 -0.0682277 0.0249194 16711680
0.383856 -0.0675791 0.024729 16711680
0.38362 -0.0669647 0.0244151 16711680
0.383527 -0.0662972 0.0242916 16711680
0.383111 -0.0657489 0.0237375 16711680
0.383068 -0.0650625 0.0236813 16711680
0.38268 -0.064503 0.0231653 16711680
0.382557 -0.0638461 0.0230014 16711680
0.382176 -0.0632832 0.0224946 16711680
0.382041 -0.0626301 0.0223154 16711680
0.381995 -0.0619446 0.0222547 16711680
0.382018 -0.0612338 0.0222868 16711680
0.382575 -0.0603299 0.0230291 16711680
0.38316 -0.0594167 0.023809 16711680
0.384006 -0.0584104 0.024936 16711680
0.385066 -0.0573281 0.0263491 16711680
0.386108 -0.0562543 0.0277374 16711680
0.386694 -0.055346 0.0285177 16711680
0.386843 -0.0545947 0.0287176 16711680
0.386871 -0.0538872 0.0287554 16711680
0.386853 -0.0531961 0.0287323 16711680
0.386806 -0.0525157 0.0286697 16711680
0.387079 -0.0517217 0.0290334 16711680
0.38683 -0.0511128 0.0287032 16711680
0.386934 -0.0503794 0.0288415 16711680
0.386658 -0.0497798 0.0284748 16711680
0.386746 -0.0490522 0.0285919 16711680
0.386473 -0.0484512 0.0282296 16711680
0.386252 -0.047832 0.027935 16711680
0.385858 -0.0472727 0.0274118 16711680
0.385077 -0.0468484 0.0263709 16711680
0.384485 -0.0463569 0.0255833 16711680
0.384097 -0.0457937 0.0250671 16711680
0.383151 -0.0454235 0.0238076 16711680
0.382787 -0.0448508 0.0233229 16711680
0.3839 -0.0437681 0.0248061 16711680
0.383763 -0.0431173 0.0246249 16711680
0.382708 -0.042782 0.0232195 16711680
0.381865 -0.0423723 0.0220973 16711680
0.380801 -0.0420371 0.0206805 16711680
0.379897 -0.0416458 0.0194765 16711680
0.379263 -0.0411612 0.0186331 16711680
0.379093 -0.0405182 0.0184077 16711680
0.378697 -0.0399518 0.0178802 16711680
0.378642 -0.0392695 0.0178077 16711680
0.378512 -0.0386128 0.0176343 16711680
0.378429 -0.0379398 0.0175247 16711680
0.37835 -0.0372657 0.0174198 16711680
0.378189 -0.0366189 0.017206 16711680
0.378073 -0.035957 0.0170523 16711680
0.377525 -0.0354393 0.0163221 16711680
0.376987 -0.0349173 0.015606 16711680
0.376464 -0.0343896 0.0149102 16711680
0.37544 -0.0340271 0.0135468 16711680
0.375187 -0.0334085 0.0132107 16711680
0.375126 -0.0327265 0.0131291 16711680
0.374702 -0.0321637 0.0125649 16711680
0.375058 -0.0313444 0.0130401 16711680
0.375678 -0.0304395 0.0138663 16711680
0.376155 -0.0295824 0.0145018 16711680
0.375425 -0.0291195 0.0135291 16711680
0.374946 -0.0285736 0.0128925 16711680
0.37522 -0.0277833 0.0132573 16711680
0.375017 -0.0271476 0.0129874 16711680
0.37407 -0.0267518 0.0117267 16711680
0.373545 -0.0262189 0.0110281 16711680
0.373253 -0.0256105 0.0106392 16711680
0.372724 -0.0250777 0.0099349 16711680
0.372605 -0.0244133 0.00977635 16711680
0.372387 -0.0237799 0.00948739 16711680
0.372149 -0.0231532 0.00916994 16711680
0.37207 -0.0224753 0.00906599 16711680
0.391652 -0.0949425 0.033946 16711680
0.393481 -0.0935024 0.0363849 16711680
0.394531 -0.0923789 0.0377868 16711680
0.393902 -0.091933 0.0369483 16711680
0.394039 -0.0897804 0.0371332 16711680
0.39326 -0.0893925 0.0360954 16711680
0.392185 -0.089121 0.034664 16711680
0.391449 -0.0887135 0.0336833 16711680
0.391764 -0.087888 0.0341039 16711680
0.392668 -0.0868296 0.0353106 16711680
0.392285 -0.0862818 0.0348001 16711680
0.391265 -0.0859844 0.0334415 16711680
0.389639 -0.0859246 0.0312737 16711680
0.390058 -0.0850587 0.0318329 16711680
0.390177 -0.0843112 0.0319922 16711680
0.390188 -0.083606 0.0320079 16711680
0.38967 -0.0831078 0.0313182 16711680
0.389143 -0.0826122 0.0306171 16711680
0.389042 -0.0819506 0.0304823 16711680
0.388603 -0.0814197 0.0298989 16711680
0.388486 -0.0807638 0.0297434 16711680
0.388201 -0.0801729 0.0293639 16711680
0.387991 -0.0795526 0.0290843 16711680
0.387848 -0.078906 0.0288955 16711680
0.387776 -0.0782324 0.0287999 16711680
0.387666 -0.0775732 0.0286542 16711680
0.38733 -0.0770006 0.0282068 16711680
0.387346 -0.0762933 0.0282283 16711680
0.387372 -0.075582 0.0282639 16711680
0.387783 -0.0747245 0.0288125 16711680
0.388246 -0.0738477 0.0294311 16711680
0.387406 -0.0734658 0.0283122 16711680
0.386494 -0.07311 0.0270969 16711680
0.387034 -0.0722049 0.0278172 16711680
0.386751 -0.0716107 0.0274408 16711680
0.386586 -0.0709718 0.0272214 16711680
0.386052 -0.0704711 0.0265108 16711680
0.385669 -0.0699136 0.0259999 16711680
0.385482 -0.0692818 0.0257521 16711680
0.385018 -0.0687534 0.0251343 16711680
0.384975 -0.0680678 0.0250776 16711680
0.384605 -0.0675037 0.0245848 16711680
0.384602 -0.066803 0.0245819 16711680
0.384244 -0.066234 0.0241045 16711680
0.384003 -0.065621 0.0237844 16711680
0.383914 -0.0649518 0.023667 16711680
0.383652 -0.0643466 0.0233177 16711680
0.383705 -0.0636254 0.0233887 16711680
0.383351 -0.0630531 0.0229179 16711680
0.383396 -0.0623347 0.022979 16711680
0.383106 -0.0617386 0.0225933 16711680
0.383232 -0.0609911 0.0227616 16711680
0.383204 -0.0602996 0.0227255 16711680
0.383627 -0.0594451 0.0232899 16711680
0.384077 -0.0585814 0.0238906 16711680
0.384572 -0.0577027 0.0245503 16711680
0.38554 -0.0566542 0.0258424 16711680
0.38626 -0.0556965 0.026803 16711680
0.386471 -0.0549227 0.0270841 16711680
0.386531 -0.054203 0.0271646 16711680
0.386582 -0.0534867 0.0272337 16711680
0.387095 -0.0526062 0.0279183 16711680
0.387008 -0.0519395 0.0278038 16711680
0.386987 -0.0512497 0.0277761 16711680
0.386861 -0.0505971 0.0276083 16711680
0.386768 -0.0499327 0.027485 16711680
0.386379 -0.0493726 0.0269663 16711680
0.386561 -0.0486113 0.0272099 16711680
0.385946 -0.0481295 0.0263915 16711680
0.385751 -0.0475002 0.0261321 16711680
0.3855 -0.0468905 0.0257972 16711680
0.384878 -0.0464096 0.0249685 16711680
0.384515 -0.0458376 0.0244859 16711680
0.38361 -0.0454533 0.0232797 16711680
0.384559 -0.0444265 0.024545 16711680
0.384384 -0.0437889 0.0243132 16711680
0.383401 -0.0434298 0.0230021 16711680
0.382592 -0.0430091 0.021925 16711680
0.381809 -0.0425785 0.0208818 16711680
0.380927 -0.0421809 0.0197058 16711680
0.380217 -0.0417231 0.0187602 16711680
0.379689 -0.0412025 0.0180569 16711680
0.379468 -0.0405767 0.017763 16711680
0.379249 -0.0399503 0.0174713 16711680
0.37914 -0.0392863 0.0173265 16711680
0.379089 -0.0386026 0.0172598 16711680
0.379024 -0.037924 0.0171726 16711680
0.378928 -0.0372553 0.0170463 16711680
0.378784 -0.0366032 0.0168538 16711680
0.378752 -0.0359131 0.0168126 16711680
0.378637 -0.035251 0.0166597 16711680
0.378609 -0.0345598 0.0166227 16711680
0.378407 -0.0339265 0.0163538 16711680
0.378323 -0.0332541 0.0162419 16711680
0.377724 -0.0327514 0.0154448 16711680
0.377661 -0.0320714 0.0153614 16711680
0.377208 -0.0315199 0.014758 16711680
0.377168 -0.0308321 0.0147053 16711680
0.377423 -0.0300478 0.0150456 16711680
0.377392 -0.0293574 0.0150049 16711680
0.376758 -0.0288637 0.0141599 16711680
0.375896 -0.0284432 0.0130115 16711680
0.375981 -0.0277145 0.0131248 16711680
0.375668 -0.0271145 0.0127083 16711680
0.374746 -0.0267112 0.0114789 16711680
0.374226 -0.0261769 0.0107861 16711680
0.373907 -0.0255772 0.0103612 16711680
0.373507 -0.0250032 0.00982845 16711680
0.373629 -0.0242617 0.00999165 16711680
0.373104 -0.0237269 0.00929248 16711680
0.372966 -0.0230682 0.00910985 16711680
0.372814 -0.0224141 0.00890696 16711680
0.372183 -0.0219115 0.00806582 16711680
0.392146 -0.0949623 0.0334667 16711680
0.393766 -0.093606 0.03563 16711680
0.395092 -0.0923708 0.037401 16711680
0.394808 -0.0917862 0.0370225 16711680
0.393715 -0.0915261 0.0355651 16711680
0.392314 -0.0913879 0.0336964 16711680
0.39331 -0.0902884 0.0350269 16711680
0.394112 -0.0892682 0.0360978 16711680
0.393209 -0.0889291 0.0348934 16711680
0.392342 -0.088574 0.0337379 16711680
0.392505 -0.0878091 0.0339558 16711680
0.393274 -0.0868043 0.034983 16711680
0.393082 -0.0861807 0.0347281 16711680
0.392347 -0.0857715 0.0337481 16711680
0.39088 -0.0856498 0.0317906 16711680
0.390823 -0.0849713 0.0317156 16711680
0.391478 -0.0840136 0.0325905 16711680
0.391159 -0.0834383 0.0321661 16711680
0.390513 -0.0829906 0.0313047 16711680
0.390135 -0.0824372 0.0308019 16711680
0.389794 -0.0818694 0.0303469 16711680
0.389325 -0.0813505 0.0297223 16711680
0.389433 -0.0806074 0.0298673 16711680
0.388987 -0.080079 0.0292733 16711680
0.388795 -0.0794519 0.0290178 16711680
0.388567 -0.0788386 0.0287144 16711680
0.388595 -0.0781266 0.0287526 16711680
0.388397 -0.0775014 0.0284896 16711680
0.388309 -0.0768341 0.0283725 16711680
0.388131 -0.0762011 0.0281355 16711680
0.388076 -0.0755207 0.0280638 16711680
0.388342 -0.0747186 0.028419 16711680
0.388969 -0.0737796 0.0292565 16711680
0.388519 -0.0732502 0.028657 16711680
0.387621 -0.0728896 0.0274596 16711680
0.387331 -0.0722981 0.0270737 16711680
0.387598 -0.0714966 0.0274304 16711680
0.387437 -0.0708567 0.027216 16711680
0.387002 -0.0703191 0.0266366 16711680
0.386841 -0.0696785 0.0264229 16711680
0.386283 -0.0691861 0.0256796 16711680
0.385988 -0.0685951 0.025286 16711680
0.385893 -0.0679292 0.02516 16711680
0.385516 -0.067368 0.0246576 16711680
0.385524 -0.0666635 0.0246693 16711680
0.385036 -0.0661426 0.0240194 16711680
0.384837 -0.0655144 0.0237548 16711680
0.384656 -0.0648797 0.0235136 16711680
0.384369 -0.0642835 0.0231317 16711680
0.384324 -0.0635985 0.0230716 16711680
0.384103 -0.0629777 0.0227778 16711680
0.384084 -0.0622828 0.0227537 16711680
0.383874 -0.0616578 0.0224744 16711680
0.383947 -0.0609296 0.0225726 16711680
0.383784 -0.0602872 0.022356 16711680
0.384095 -0.0594734 0.0227708 16711680
0.384465 -0.0586386 0.0232652 16711680
0.384583 -0.0578952 0.0234241 16711680
0.385078 -0.0570167 0.0240849 16711680
0.386065 -0.0559621 0.0254033 16711680
0.386346 -0.0551623 0.0257789 16711680
0.386286 -0.0544851 0.0256991 16711680
0.386721 -0.053631 0.0262811 16711680
0.386858 -0.052884 0.0264647 16711680
0.386772 -0.0522166 0.0263506 16711680
0.386684 -0.0515498 0.0262338 16711680
0.386587 -0.0508861 0.0261058 16711680
0.386662 -0.0501619 0.026206 16711680
0.386499 -0.0495216 0.0259893 16711680
0.386421 -0.0488513 0.0258861 16711680
0.386259 -0.0482105 0.0256704 16711680
0.38574 -0.0476946 0.0249783 16711680
0.385827 -0.0469661 0.0250956 16711680
0.38528 -0.046459 0.0243661 16711680
0.385087 -0.0458281 0.0241091 16711680
0.384119 -0.0454658 0.0228181 16711680
0.384226 -0.0447302 0.0229609 16711680
0.384917 -0.0437929 0.0238847 16711680
0.383794 -0.0434821 0.0223863 16711680
0.383084 -0.0430274 0.0214403 16711680
0.381429 -0.0428962 0.0192317 16711680
0.380748 -0.0424291 0.0183235 16711680
0.380482 -0.0418195 0.0179689 16711680
0.379991 -0.0412862 0.0173143 16711680
0.379674 -0.0406929 0.0168922 16711680
0.379708 -0.0399802 0.0169388 16711680
0.379535 -0.0393379 0.0167083 16711680
0.379519 -0.0386424 0.0166876 16711680
0.379482 -0.0379542 0.0166384 16711680
0.379487 -0.0372516 0.0166463 16711680
0.379458 -0.0365607 0.016608 16711680
0.379361 -0.0358926 0.0164796 16711680
0.37931 -0.0352091 0.0164121 16711680
0.379226 -0.0345367 0.0163008 16711680
0.379123 -0.0338706 0.0161638 16711680
0.379096 -0.0331794 0.0161278 16711680
0.37902 -0.0325043 0.0160272 16711680
0.378968 -0.0318213 0.0159584 16711680
0.378901 -0.0311433 0.0158695 16711680
0.378928 -0.0304341 0.0159072 16711680
0.378687 -0.0298133 0.0155858 16711680
0.378345 -0.0292251 0.0151304 16711680
0.377876 -0.028678 0.0145047 16711680
0.377662 -0.0280473 0.0142201 16711680
0.377637 -0.0273551 0.0141869 16711680
0.376667 -0.026969 0.0128927 16711680
0.376192 -0.0264214 0.0122603 16711680
0.375685 -0.0258838 0.0115836 16711680
0.374824 -0.0254592 0.0104353 16711680
0.374443 -0.0248792 0.00992823 16711680
0.374451 -0.0241747 0.00993884 16711680
0.374005 -0.0236151 0.00934386 16711680
0.37418 -0.0228571 0.00957811 16711680
0.373685 -0.0223121 0.008919 16711680
0.37308 -0.0218016 0.00811231 16711680
0.392655 -0.0949758 0.0330083 16711680
0.394211 -0.0936451 0.0350875 16711680
0.395662 -0.0923589 0.037028 16711680
0.39557 -0.0916973 0.0369049 16711680
0.394937 -0.0912526 0.0360609 16711680
0.393599 -0.09109 0.0342749 16711680
0.393052 -0.0906087 0.0335453 16711680
0.395042 -0.0891128 0.0362043 16711680
0.394077 -0.0887989 0.0349159 16711680
0.393364 -0.0883833 0.0339645 16711680
0.393335 -0.0876949 0.0339267 16711680
0.393729 -0.0868385 0.0344547 16711680
0.39394 -0.0860556 0.0347375 16711680
0.393533 -0.0855173 0.0341946 16711680
0.392412 -0.0852596 0.0326989 16711680
0.391728 -0.0848288 0.0317861 16711680
0.392299 -0.0839042 0.032549 16711680
0.392064 -0.0832963 0.0322367 16711680
0.391365 -0.0828695 0.0313042 16711680
0.391168 -0.0822459 0.0310425 16711680
0.390641 -0.0817508 0.0303395 16711680
0.390196 -0.0812234 0.029745 16711680
0.390133 -0.0805469 0.0296619 16711680
0.389608 -0.0800491 0.0289621 16711680
0.389592 -0.0793541 0.0289421 16711680
0.389366 -0.0787404 0.0286405 16711680
0.389388 -0.0780308 0.0286711 16711680
0.389118 -0.0774334 0.0283117 16711680
0.389229 -0.0766898 0.0284611 16711680
0.388876 -0.0761242 0.0279897 16711680
0.388811 -0.0754481 0.0279037 16711680
0.388953 -0.0746931 0.0280945 16711680
0.389544 -0.0737674 0.0288856 16711680
0.389702 -0.0730075 0.0290972 16711680
0.388935 -0.072598 0.0280741 16711680
0.388111 -0.0722093 0.0269736 16711680
0.388161 -0.0714893 0.0270423 16711680
0.388153 -0.0707917 0.0270325 16711680
0.387851 -0.0702046 0.0266299 16711680
0.387693 -0.0695631 0.0264196 16711680
0.387049 -0.0691036 0.0255597 16711680
0.386827 -0.0684851 0.025265 16711680
0.386597 -0.0678698 0.0249586 16711680
0.386482 -0.0672116 0.0248049 16711680
0.386308 -0.066575 0.0245733 16711680
0.385762 -0.066076 0.0238451 16711680
0.385648 -0.0654164 0.0236946 16711680
0.385325 -0.0648341 0.0232637 16711680
0.385367 -0.064117 0.0233212 16711680
0.385082 -0.0635203 0.0229414 16711680
0.385116 -0.0628066 0.0229869 16711680
0.384887 -0.0621888 0.0226824 16711680
0.384964 -0.0614596 0.0227852 16711680
0.384765 -0.0608305 0.0225213 16711680
0.384848 -0.0600992 0.0226327 16711680
0.384909 -0.059376 0.0227154 16711680
0.385374 -0.0585069 0.0233371 16711680
0.38555 -0.057743 0.0235729 16711680
0.382427 -0.0427414 0.01942 16711680
0.381671 -0.0423004 0.0184112 16711680
0.380963 -0.0418419 0.0174668 16711680
0.380518 -0.0412931 0.0168724 16711680
0.379988 -0.0407724 0.0161651 16711680
0.380177 -0.040007 0.0164187 16711680
0.380178 -0.0393056 0.0164211 16711680
0.379946 -0.038683 0.0161123 16711680
0.379805 -0.0380297 0.0159242 16711680
0.379992 -0.0372659 0.0161749 16711680
0.380069 -0.0365394 0.0162785 16711680
0.379878 -0.035903 0.0160235 16711680
0.379811 -0.0352248 0.0159352 16711680
0.379773 -0.0345369 0.0158856 16711680
0.379721 -0.033854 0.015816 16711680
0.379698 -0.0331613 0.0157862 16711680
0.37988 -0.0324008 0.0160307 16711680
0.379684 -0.0317655 0.0157695 16711680
0.37971 -0.0310572 0.0158041 16711680
0.379811 -0.030324 0.0159407 16711680
0.379542 -0.0297125 0.0155821 16711680
0.378937 -0.0292108 0.0147742 16711680
0.378516 -0.0286481 0.0142126 16711680
0.378693 -0.0278902 0.0144498 16711680
0.378432 -0.027275 0.0141014 16711680
0.37847 -0.0265625 0.0141532 16711680
0.378153 -0.0259651 0.0137302 16711680
0.377934 -0.0253356 0.0134386 16711680
0.377618 -0.024737 0.0130175 16711680
0.376611 -0.0243601 0.0116729 16711680
0.375894 -0.0238886 0.0107164 16711680
0.375831 -0.0232076 0.0106319 16711680
0.375417 -0.022638 0.0100807 16711680
0.374736 -0.0221532 0.00917065 16711680
0.37439 -0.0215611 0.00870919 16711680
0.393176 -0.0949843 0.0325663 16711680
0.394711 -0.0936618 0.0346193 16711680
0.39617 -0.0923724 0.036571 16711680
0.396465 -0.0915544 0.0369664 16711680
0.395993 -0.0910455 0.0363368 16711680
0.395261 -0.0906405 0.0353588 16711680
0.393767 -0.0905394 0.0333631 16711680
0.396448 -0.0887667 0.0369493 16711680
0.395142 -0.08859 0.0352031 16711680
0.394327 -0.0882153 0.0341152 16711680
0.394034 -0.0876323 0.0337242 16711680
0.394297 -0.0868279 0.0340778 16711680
0.394902 -0.085889 0.0348876 16711680
0.394643 -0.0852924 0.0345424 16711680
0.393708 -0.0849627 0.0332924 16711680
0.392542 -0.0847221 0.0317348 16711680
0.392823 -0.0839114 0.0321114 16711680
0.392937 -0.0831666 0.0322653 16711680
0.39271 -0.0825555 0.0319636 16711680
0.392086 -0.0820996 0.03113 16711680
0.391402 -0.081666 0.0302167 16711680
0.391336 -0.080991 0.0301298 16711680
0.390911 -0.0804558 0.0295616 16711680
0.390354 -0.0799708 0.0288185 16711680
0.390412 -0.0792474 0.0288969 16711680
0.390046 -0.0786877 0.028409 16711680
0.390208 -0.0779242 0.028627 16711680
0.389829 -0.0773694 0.0281205 16711680
0.389948 -0.0766225 0.0282817 16711680
0.389636 -0.0760416 0.0278642 16711680
0.389677 -0.0753252 0.0279201 16711680
0.389592 -0.0746567 0.0278081 16711680
0.390145 -0.0737455 0.0285491 16711680
0.390548 -0.0728925 0.0290886 16711680
0.39002 -0.072393 0.0283836 16711680
0.389224 -0.071994 0.0273209 16711680
0.389052 -0.0713586 0.0270913 16711680
0.389216 -0.0705963 0.0273122 16711680
0.389139 -0.0699252 0.0272098 16711680
0.388466 -0.0694774 0.0263114 16711680
0.387946 -0.0689714 0.0256175 16711680
0.38779 -0.068329 0.0254096 16711680
0.387352 -0.0677914 0.0248251 16711680
0.387311 -0.0671058 0.0247709 16711680
0.386989 -0.0665244 0.0243411 16711680
0.386734 -0.0659177 0.0240018 16711680
0.38653 -0.0652921 0.0237296 16711680
0.386169 -0.0647242 0.0232476 16711680
0.386176 -0.0640203 0.0232577 16711680
0.385978 -0.0633919 0.022994 16711680
0.386106 -0.0626435 0.023167 16711680
0.3822 -0.0416062 0.0179738 16711680
0.381279 -0.04122 0.0167439 16711680
0.380665 -0.0407282 0.0159236 16711680
0.380652 -0.0400316 0.0159067 16711680
0.380198 -0.0394844 0.0153006 16711680
0.380236 -0.0387702 0.0153522 16711680
0.38019 -0.0380847 0.0152913 16711680
0.380377 -0.0373205 0.0155432 16711680
0.380508 -0.0365758 0.0157187 16711680
0.380494 -0.03588 0.0157007 16711680
0.380391 -0.0352137 0.0155647 16711680
0.380564 -0.0344557 0.0157965 16711680
0.380425 -0.0338018 0.0156113 16711680
0.380345 -0.0331281 0.0155056 16711680
0.380796 -0.0322787 0.0161092 16711680
0.380329 -0.0317333 0.0154855 16711680
0.380623 -0.0309367 0.0158786 16711680
0.380493 -0.0302798 0.0157058 16711680
0.380382 -0.0296166 0.0155588 16711680
0.379569 -0.0291831 0.0144727 16711680
0.379117 -0.0286309 0.0138687 16711680
0.379262 -0.0278833 0.0140636 16711680
0.379092 -0.0272384 0.0138376 16711680
0.379128 -0.0265269 0.0138855 16711680
0.378957 -0.0258822 0.013658 16711680
0.37899 -0.0251716 0.0137035 16711680
0.378689 -0.024569 0.0133007 16711680
0.378492 -0.0239321 0.0130392 16711680
0.378361 -0.0232743 0.0128639 16711680
0.37835 -0.0225778 0.0128509 16711680
0.378108 -0.0219553 0.0125275 16711680
0.377607 -0.0214149 0.0118579 16711680
0.393698 -0.0949928 0.0321244 16711680
0.395121 -0.0937153 0.0340292 16711680
0.396654 -0.0923951 0.0360833 16711680
0.397583 -0.0913213 0.0373279 16711680
0.397183 -0.0907842 0.0367931 16711680
0.396291 -0.0904441 0.0356003 16711680
0.395045 -0.0902445 0.0339342 16711680
0.396265 -0.0890564 0.0355684 16711680
0.396447 -0.0882849 0.0358129 16711680
0.395417 -0.0879968 0.0344361 16711680
0.394805 -0.087541 0.0336183 16711680
0.394995 -0.0867658 0.0338744 16711680
0.395596 -0.0858284 0.0346797 16711680
0.395549 -0.0851485 0.0346169 16711680
0.394756 -0.0847628 0.0335571 16711680
0.393577 -0.084528 0.0319805 16711680
0.393741 -0.0837637 0.0322013 16711680
0.393642 -0.0831026 0.0320708 16711680
0.393523 -0.0824499 0.0319115 16711680
0.393013 -0.0819493 0.0312312 16711680
0.392292 -0.0815307 0.030267 16711680
0.392118 -0.0808982 0.0300354 16711680
0.391754 -0.0803392 0.0295497 16711680
0.391516 -0.0797309 0.0292326 16711680
0.391199 -0.0791532 0.0288091 16711680
0.390942 -0.0785518 0.0284659 16711680
0.391021 -0.0778207 0.0285726 16711680
0.390705 -0.0772414 0.0281519 16711680
0.390731 -0.0765308 0.0281874 16711680
0.390534 -0.0759059 0.0279244 16711680
0.390553 -0.0751981 0.027951 16711680
0.390295 -0.0745957 0.027608 16711680
0.390777 -0.0737119 0.0282538 16711680
0.391247 -0.0728335 0.0288832 16711680
0.391075 -0.0721991 0.0286542 16711680
0.390618 -0.0716723 0.0280446 16711680
0.389943 -0.0712276 0.0271417 16711680
0.389986 -0.070511 0.0272014 16711680
0.389954 -0.0698232 0.0271591 16711680
0.389192 -0.0694093 0.02614 16711680
0.388986 -0.0687862 0.0258651 16711680
0.388599 -0.0682302 0.025349 16711680
0.388162 -0.0676926 0.0247653 16711680
0.388175 -0.066987 0.0247835 16711680
0.387741 -0.0664476 0.0242039 16711680
0.387873 -0.0656978 0.0243814 16711680
0.380958 -0.0394123 0.0151699 16711680
0.381013 -0.0386926 0.0152445 16711680
0.380663 -0.03811 0.0147762 16711680
0.381076 -0.0372695 0.015331 16711680
0.381329 -0.0364839 0.0156702 16711680
0.381802 -0.035625 0.0163041 16711680
0.381213 -0.0351221 0.0155169 16711680
0.381671 -0.0342692 0.01613 16711680
0.381799 -0.0335267 0.0163028 16711680
0.380801 -0.0331585 0.0149686 16711680
0.381416 -0.0322545 0.0157927 16711680
0.381388 -0.0315643 0.0157554 16711680
0.381366 -0.030872 0.0157268 16711680
0.380995 -0.0302947 0.0152311 16711680
0.381013 -0.0295892 0.015256 16711680
0.380245 -0.0291412 0.0142299 16711680
0.379815 -0.0285817 0.0136553 16711680
0.379856 -0.0278685 0.01371 16711680
0.379779 -0.0271935 0.0136082 16711680
0.379775 -0.0264947 0.0136039 16711680
0.379612 -0.0258476 0.013387 16711680
0.37962 -0.0251453 0.0133983 16711680
0.379423 -0.0245091 0.0131352 16711680
0.379466 -0.0237954 0.0131938 16711680
0.379241 -0.0231679 0.0128939 16711680
0.379272 -0.0224585 0.0129355 16711680
0.378915 -0.0218729 0.0124586 16711680
0.37889 -0.0211811 0.012426 16711680
0.378678 -0.0205488 0.0121436 16711680
0.377666 -0.0201698 0.0107898 16711680
0.39426 -0.0949849 0.0317364 16711680
0.395527 -0.0937699 0.0334356 16711680
0.39704 -0.0924579 0.0354629 16711680
0.398071 -0.0913425 0.0368454 16711680
0.398048 -0.0906532 0.0368167 16711680
0.397332 -0.090243 0.0358582 16711680
0.396443 -0.0899011 0.0346681 16711680
0.396056 -0.0893566 0.0341516 16711680
0.397082 -0.0882471 0.0355277 16711680
0.39626 -0.0878765 0.0344276 16711680
0.395582 -0.0874473 0.0335206 16711680
0.395646 -0.0867224 0.0336081 16711680
0.396219 -0.0857959 0.0343769 16711680
0.3963 -0.0850654 0.0344862 16711680
0.396054 -0.084464 0.0341581 16711680
0.395136 -0.0841272 0.0329297 16711680
0.394205 -0.0837944 0.0316834 16711680
0.394252 -0.0830761 0.0317482 16711680
0.394322 -0.0823492 0.0318428 16711680
0.393732 -0.0818804 0.0310541 16711680
0.393429 -0.0812989 0.0306492 16711680
0.392996 -0.0807676 0.0300708 16711680
0.392583 -0.0802282 0.0295184 16711680
0.392416 -0.0795927 0.0292962 16711680
0.392051 -0.0790336 0.028809 16711680
0.392065 -0.0783279 0.0288285 16711680
0.391768 -0.077742 0.0284323 16711680
0.391686 -0.0770732 0.0283235 16711680
0.391635 -0.0763925 0.0282563 16711680
0.391496 -0.0757452 0.0280722 16711680
0.391394 -0.0750843 0.0279357 16711680
0.391214 -0.0744526 0.0276966 16711680
0.391388 -0.0736861 0.0279312 16711680
0.391745 -0.0728504 0.0284107 16711680
0.391883 -0.0720984 0.0285968 16711680
0.391706 -0.0714663 0.02836 16711680
0.390966 -0.0710467 0.0273699 16711680
0.390576 -0.0704938 0.026849 16711680
0.390638 -0.0697704 0.0269336 16711680
0.390234 -0.0692224 0.0263932 16711680
0.389957 -0.068626 0.0260237 16711680
0.389407 -0.0681316 0.0252885 16711680
0.388975 -0.0675925 0.0247107 16711680
0.383922 -0.0364953 0.0179942 16711680
0.382527 -0.0362653 0.0161268 16711680
0.382399 -0.0356083 0.0159565 16711680
0.381547 -0.0351937 0.0148158 16711680
0.381397 -0.0345431 0.0146171 16711680
0.381667 -0.0337528 0.0149796 16711680
0.381371 -0.0331513 0.014583 16711680
0.382107 -0.032207 0.0155702 16711680
0.382051 -0.031526 0.0154964 16711680
0.381792 -0.030912 0.0151505 16711680
0.381765 -0.0302213 0.0151159 16711680
0.381738 -0.0295307 0.0150807 16711680
0.380983 -0.029079 0.0140697 16711680
0.380463 -0.0285493 0.0133736 16711680
0.380469 -0.027847 0.013384 16711680
0.380541 -0.0271237 0.0134809 16711680
0.380339 -0.0264894 0.0132115 16711680
0.380287 -0.0258065 0.0131425 16711680
0.380286 -0.025107 0.0131426 16711680
0.380058 -0.0244811 0.0128371 16711680
0.380187 -0.0237399 0.0130109 16711680
0.379925 -0.0231243 0.0126617 16711680
0.380022 -0.0223938 0.0127921 16711680
0.379662 -0.0218094 0.0123106 16711680
0.379701 -0.0210973 0.0123643 16711680
0.379471 -0.020471 0.0120571 16711680
0.379183 -0.0198629 0.0116723 16711680
0.394826 -0.0949755 0.0313537 16711680
0.396004 -0.0937962 0.0329353 16711680
0.397619 -0.0924425 0.0351013 16711680
0.398618 -0.0913397 0.036443 16711680
0.398865 -0.090542 0.0367748 16711680
0.398553 -0.0899692 0.0363588 16711680
0.397928 -0.0895221 0.0355214 16711680
0.396759 -0.0892918 0.0339558 16711680
0.398016 -0.08809 0.0356423 16711680
0.397363 -0.0876522 0.0347686 16711680
0.396815 -0.0871717 0.0340359 16711680
0.396465 -0.0866123 0.0335668 16711680
0.396652 -0.085839 0.033819 16711680
0.397011 -0.0849981 0.0343019 16711680
0.397021 -0.0842957 0.0343167 16711680
0.396305 -0.0838798 0.0333582 16711680
0.395285 -0.0835827 0.0319917 16711680
0.39556 -0.082775 0.0323629 16711680
0.395273 -0.0821888 0.0319782 16711680
0.394698 -0.0817145 0.0312096 16711680
0.394527 -0.0810817 0.030982 16711680
0.39392 -0.080619 0.030169 16711680
0.39361 -0.0800399 0.0297544 16711680
0.393265 -0.0794739 0.0292929 16711680
0.392848 -0.0789353 0.0287355 16711680
0.392885 -0.0782208 0.0287863 16711680
0.39253 -0.0776576 0.0283118 16711680
0.392551 -0.0769491 0.0283419 16711680
0.392366 -0.0763201 0.0280952 16711680
0.392402 -0.0756064 0.0281441 16711680
0.392169 -0.0749957 0.0278329 16711680
0.392124 -0.0743127 0.0277741 16711680
0.392001 -0.0736595 0.0276111 16711680
0.392353 -0.0728257 0.0280843 16711680
0.392564 -0.0720463 0.028368 16711680
0.392506 -0.0713688 0.0282919 16711680
0.392177 -0.070794 0.0278523 16711680
0.391357 -0.0704041 0.0267541 16711680
0.391164 -0.069777 0.0264966 16711680
0.391031 -0.069127 0.0263199 16711680
0.382183 -0.0344634 0.0145222 16711680
0.382586 -0.0336289 0.0150633 16711680
0.381977 -0.0331317 0.0142478 16711680
0.382872 -0.0321347 0.0154487 16711680
0.382498 -0.0315593 0.0149475 16711680
0.382145 -0.0309761 0.0144767 16711680
0.381933 -0.0303465 0.0141923 16711680
0.382198 -0.02886 0.0145508 16711680
0.382041 -0.0282122 0.0143409 16711680
0.381666 -0.0276354 0.0138386 16711680
0.380953 -0.0271679 0.0128844 16711680
0.380898 -0.0264861 0.0128111 16711680
0.380825 -0.0258096 0.0127153 16711680
0.380889 -0.0250894 0.0128016 16711680
0.380861 -0.0243988 0.012765 16711680
0.380738 -0.0237387 0.012602 16711680
0.380775 -0.0230275 0.0126517 16711680
0.380697 -0.0223531 0.0125483 16711680
0.380511 -0.0217132 0.0123 16711680
0.380473 -0.021026 0.0122504 16711680
0.380218 -0.020408 0.0119088 16711680
0.380037 -0.0197659 0.0116678 16711680
0.396423 -0.0945471 0.0323551 16711680
0.396611 -0.0937699 0.032609 16711680
0.398043 -0.0924899 0.0345318 16711680
0.399069 -0.0913758 0.0359112 16711680
0.39955 -0.0904836 0.0365577 16711680
0.399597 -0.0897667 0.0366223 16711680
0.398849 -0.0893693 0.0356199 16711680
0.397967 -0.0890243 0.0344386 16711680
0.398282 -0.0881997 0.0348624 16711680
0.398217 -0.0875271 0.0347768 16711680
0.397719 -0.0870272 0.03411 16711680
0.397299 -0.0864958 0.0335474 16711680
0.397299 -0.085797 0.0335487 16711680
0.397583 -0.0849856 0.0339319 16711680
0.397884 -0.0841683 0.0343372 16711680
0.397255 -0.0837185 0.0334946 16711680
0.396368 -0.0833692 0.0323063 16711680
0.396149 -0.0827567 0.0320128 16711680
0.396192 -0.0820407 0.0320727 16711680
0.395849 -0.0814761 0.0316141 16711680
0.395335 -0.0809779 0.0309259 16711680
0.394828 -0.0804765 0.0302464 16711680
0.394554 -0.0798836 0.0298799 16711680
0.394085 -0.0793662 0.0292518 16711680
0.393755 -0.0787943 0.0288103 16711680
0.393643 -0.0781376 0.0286615 16711680
0.39328 -0.0775777 0.0281763 16711680
0.393403 -0.0768304 0.0283419 16711680
0.393161 -0.0762233 0.0280194 16711680
0.393133 -0.0755342 0.0279832 16711680
0.392849 -0.0749431 0.0276037 16711680
0.392938 -0.074209 0.0277249 16711680
0.392685 -0.0736059 0.0273862 16711680
0.39287 -0.0728355 0.0276365 16711680
0.393066 -0.0720617 0.0279001 16711680
0.393099 -0.07135 0.0279458 16711680
0.393048 -0.0706699 0.0278794 16711680
0.383259 -0.0328875 0.0148182 16711680
0.38346 -0.0321211 0.0150899 16711680
0.383026 -0.0315655 0.0145084 16711680
0.381584 -0.0285408 0.0125798 16711680
0.382647 -0.0274937 0.014007 16711680
0.382343 -0.0268934 0.0136008 16711680
0.382028 -0.0262967 0.0131787 16711680
0.381356 -0.0258153 0.0122777 16711680
0.381312 -0.0251298 0.0122197 16711680
0.381578 -0.0243441 0.0125781 16711680
0.381344 -0.02372 0.0122658 16711680
0.381362 -0.023015 0.0122901 16711680
0.381293 -0.0223376 0.0121994 16711680
0.381402 -0.0216035 0.0123466 16711680
0.381236 -0.0209574 0.0121249 16711680
0.380943 -0.0203515 0.0117331 16711680
0.38108 -0.019609 0.0119174 16711680
0.380316 -0.0191519 0.0108933 16711680
0.39677 -0.0946265 0.0316794 16711680
0.39707 -0.0938035 0.0320846 16711680
0.398546 -0.0925051 0.0340689 16711680
0.399597 -0.091381 0.0354819 16711680
0.400301 -0.0903985 0.0364293 16711680
0.400548 -0.0896012 0.0367628 16711680
0.399911 -0.0891594 0.0359097 16711680
0.399315 -0.0887007 0.0351105 16711680
0.398992 -0.0881317 0.0346785 16711680
0.399213 -0.0873452 0.0349765 16711680
0.398569 -0.086904 0.0341128 16711680
0.398072 -0.0864036 0.0334463 16711680
0.397941 -0.0857569 0.0332721 16711680
0.398097 -0.0849962 0.033484 16711680
0.398556 -0.0841164 0.0341015 16711680
0.398341 -0.0835033 0.0338147 16711680
0.397859 -0.0829953 0.0331687 16711680
0.396997 -0.0826361 0.032012 16711680
0.396718 -0.0820468 0.031639 16711680
0.396743 -0.0813383 0.0316739 16711680
0.396417 -0.0807668 0.0312383 16711680
0.395758 -0.0803251 0.0303545 16711680
0.395424 -0.0797559 0.0299078 16711680
0.394964 -0.0792354 0.0292908 16711680
0.394898 -0.0785613 0.0292039 16711680
0.394466 -0.0780292 0.0286248 16711680
0.394234 -0.077419 0.0283147 16711680
0.394203 -0.0767313 0.0282743 16711680
0.393877 -0.0761569 0.027838 16711680
0.393893 -0.0754509 0.0278614 16711680
0.393624 -0.0748543 0.0275015 16711680
0.393651 -0.0741443 0.0275389 16711680
0.393378 -0.0735488 0.027174 16711680
0.393453 -0.0728203 0.0272769 16711680
0.393364 -0.0721548 0.0271581 16711680
0.381585 -0.0315233 0.0114248 16711680
0.386517 -0.0291955 0.0180513 16711680
0.385012 -0.0282956 0.0160321 16711680
0.382979 -0.0268646 0.0133058 16711680
0.383011 -0.0261553 0.0133491 16711680
0.38287 -0.0255017 0.0131618 16711680
0.382127 -0.0250432 0.0121646 16711680
0.382128 -0.0243434 0.0121673 16711680
0.381979 -0.0236921 0.0119678 16711680
0.381796 -0.0230514 0.0117236 16711680
0.381976 -0.0222944 0.0119665 16711680
0.382319 -0.0214856 0.012428 16711680
0.381874 -0.0209287 0.0118319 16711680
0.38203 -0.0201801 0.0120422 16711680
0.381705 -0.0195845 0.0116069 16711680
0.381097 -0.0190781 0.0107921 16711680
0.397512 -0.0938441 0.0315367 16711680
0.399131 -0.0924874 0.0337152 16711680
0.400218 -0.0913483 0.0351787 16711680
0.400898 -0.090375 0.0360959 16711680
0.401394 -0.0894774 0.0367645 16711680
0.401297 -0.0888194 0.036635 16711680
0.400546 -0.0884233 0.0356278 16711680
0.399718 -0.0880576 0.0345154 16711680
0.39976 -0.0873423 0.0345744 16711680
0.399544 -0.0867307 0.0342849 16711680
0.399044 -0.0862315 0.033615 16711680
0.398742 -0.0856535 0.0332096 16711680
0.398714 -0.0849662 0.0331736 16711680
0.399218 -0.0840681 0.0338537 16711680
0.399495 -0.083261 0.0342273 16711680
0.398959 -0.0827748 0.0335084 16711680
0.397973 -0.0824648 0.0321851 16711680
0.397344 -0.0820136 0.0313404 16711680
0.397416 -0.0812868 0.0314381 16711680
0.397234 -0.0806591 0.0311959 16711680
0.397022 -0.0800435 0.0309119 16711680
0.396348 -0.0796071 0.0300082 16711680
0.395898 -0.0790832 0.0294043 16711680
0.395764 -0.0784358 0.0292259 16711680
0.395231 -0.0779429 0.028511 16711680
0.395286 -0.0772222 0.0285861 16711680
0.394973 -0.0766437 0.0281665 16711680
0.394889 -0.0759763 0.0280559 16711680
0.394677 -0.0753582 0.0277727 16711680
0.394635 -0.0746751 0.027717 16711680
0.394416 -0.0740592 0.0274249 16711680
0.394108 -0.0734774 0.027012 16711680
0.386456 -0.0273034 0.0168276 16711680
0.385496 -0.0269202 0.0155377 16711680
0.383967 -0.026721 0.0134836 16711680
0.38263 -0.0264573 0.0116872 16711680
0.383034 -0.0256264 0.0122316 16711680
0.381961 -0.0252744 0.0107909 16711680
0.381508 -0.0247207 0.0101832 16711680
0.382584 -0.0236735 0.0116317 16711680
0.382093 -0.0231322 0.010972 16711680
0.382516 -0.0222968 0.0115423 16711680
0.382269 -0.0216768 0.0112112 16711680
0.382485 -0.0209085 0.0115032 16711680
0.382767 -0.0201197 0.0118835 16711680
0.382288 -0.0195734 0.0112402 16711680
0.382101 -0.0189337 0.0109904 16711680
0.397997 -0.0938672 0.0310472 16711680
0.400253 -0.0922517 0.034085 16711680
0.400804 -0.0913296 0.0348289 16711680
0.40156 -0.0903258 0.0358483 16711680
0.402094 -0.0894127 0.0365692 16711680
0.402265 -0.0886467 0.0368016 16711680
0.401555 -0.0882352 0.0358468 16711680
0.400827 -0.0878297 0.0348688 16711680
0.400409 -0.0872992 0.0343077 16711680
0.400722 -0.0864763 0.0347308 16711680
0.400221 -0.085978 0.0340592 16711680
0.399707 -0.0854847 0.0333691 16711680
0.39941 -0.0849046 0.0329704 16711680
0.399721 -0.0840829 0.0333918 16711680
0.400184 -0.083202 0.0340165 16711680
0.39995 -0.082597 0.0337032 16711680
0.399454 -0.0820948 0.0330375 16711680
0.398589 -0.0817372 0.0318745 16711680
0.398274 -0.0811626 0.0314519 16711680
0.398554 -0.0803543 0.0318319 16711680
0.397945 -0.0798944 0.0310129 16711680
0.397396 -0.0794099 0.0302764 16711680
0.397146 -0.0788086 0.0299412 16711680
0.396665 -0.0782966 0.0292956 16711680
0.396269 -0.0777511 0.0287642 16711680
0.396159 -0.0770942 0.0286187 16711680
0.395699 -0.0765726 0.0280014 16711680
0.395748 -0.0758545 0.0280683 16711680
0.395428 -0.0752781 0.0276399 16711680
0.395371 -0.0746008 0.0275643 16711680
0.394947 -0.0740636 0.0269964 16711680
0.382624 -0.0259375 0.010529 16711680
0.382062 -0.0254195 0.00977421 16711680
0.382176 -0.0246822 0.00992918 16711680
0.381856 -0.0240851 0.00950015 16711680
0.381624 -0.0234594 0.00918937 16711680
0.381897 -0.0226714 0.00955796 16711680
0.381979 -0.021945 0.00967002 16711680
0.382996 -0.0209201 0.0110407 16711680
0.382131 -0.0204969 0.00987732 16711680
0.382969 -0.019531 0.0110061 16711680
0.382849 -0.0188702 0.0108461 16711680
0.382488 -0.0182857 0.0103616 16711680
0.38153 -0.017889 0.00907433 16711680
0.40007 -0.0925449 0.0326991 16711680
0.401233 -0.0913747 0.0342669 16711680
0.402424 -0.0901947 0.0358739 16711680
0.402691 -0.0893896 0.0362353 16711680
0.402997 -0.0885691 0.0366502 16711680
0.402654 -0.0880104 0.0361894 16711680
0.402191 -0.0874992 0.0355674 16711680
0.40152 -0.0870706 0.0346653 16711680
0.401968 -0.086194 0.0352712 16711680
0.401365 -0.0857375 0.0344603 16711680
0.400643 -0.0853274 0.0334897 16711680
0.400296 -0.0847673 0.0330243 16711680
0.400262 -0.084083 0.0329797 16711680
0.400745 -0.0831941 0.033632 16711680
0.400786 -0.0824801 0.0336905 16711680
0.400613 -0.0818511 0.0334592 16711680
0.399788 -0.0814783 0.0323496 16711680
0.398887 -0.0811341 0.0311377 16711680
0.39905 -0.080372 0.0313587 16711680
0.39875 -0.0797913 0.030956 16711680
0.39823 -0.0792958 0.0302582 16711680
0.397959 -0.0787028 0.0298947 16711680
0.397469 -0.0781946 0.0292366 16711680
0.397315 -0.0775557 0.0290303 16711680
0.396921 -0.0770094 0.0285013 16711680
0.39646 -0.0764883 0.0278825 16711680
0.396462 -0.0757883 0.027887 16711680
0.396118 -0.0752215 0.0274254 16711680
0.395968 -0.07458 0.0272247 16711680
0.381398 -0.0251111 0.0077287 16711680
0.381667 -0.024323 0.00809264 16711680
0.381124 -0.0237971 0.00736213 16711680
0.382287 -0.0227222 0.0089308 16711680
0.382099 -0.0220823 0.00867856 16711680
0.382708 -0.0204878 0.00950181 16711680
0.3835 -0.0195363 0.0105698 16711680
0.383113 -0.0189602 0.0100504 16711680
0.382927 -0.01832 0.00980186 16711680
0.381976 -0.0179216 0.00852108 16711680
0.380811 -0.0175889 0.00695384 16711680
0.403351 -0.0893408 0.0359875 16711680
0.403664 -0.0885178 0.0364109 16711680
0.403752 -0.0877855 0.0365323 16711680
0.403197 -0.0873119 0.0357856 16711680
0.402463 -0.0869093 0.034797 16711680
0.402224 -0.0863073 0.0344777 16711680
0.402216 -0.0856135 0.0344682 16711680
0.401587 -0.0851665 0.0336227 16711680
0.40127 -0.0845952 0.0331964 16711680
0.400923 -0.0840351 0.0327308 16711680
0.401216 -0.0832211 0.0331284 16711680
0.401451 -0.082431 0.0334467 16711680
0.401401 -0.0817534 0.0333818 16711680
0.400939 -0.0812383 0.0327603 16711680
0.400111 -0.0808662 0.0316455 16711680
0.39979 -0.0802943 0.0312144 16711680
0.39993 -0.0795415 0.0314052 16711680
0.399382 -0.0790574 0.0306693 16711680
0.398704 -0.0786236 0.0297568 16711680
0.398156 -0.0781384 0.0290191 16711680
0.398076 -0.0774707 0.0289133 16711680
0.397734 -0.0769045 0.0284538 16711680
0.397557 -0.0762741 0.0282171 16711680
0.397326 -0.0756643 0.027908 16711680
0.396724 -0.0751972 0.0270978 16711680
0.384773 -0.0193054 0.0111344 16711680
0.38403 -0.0188431 0.0101341 16711680
0.383017 -0.0184652 0.00877023 16711680
0.382446 -0.0179462 0.00800216 16711680
0.381324 -0.0176002 0.00649047 16711680
0.382571 -0.0165076 0.00817335 16711680
0.404265 -0.0891894 0.0360821 16711680
0.404291 -0.0884823 0.036119 16711680
0.404551 -0.0876811 0.0364718 16711680
0.404145 -0.0871479 0.0359261 16711680
0.403637 -0.0866551 0.0352423 16711680
0.403294 -0.0860956 0.0347812 16711680
0.402965 -0.0855298 0.0343398 16711680
0.402911 -0.0848543 0.0342691 16711680
0.402096 -0.0844815 0.0331707 16711680
0.401574 -0.0839911 0.0324687 16711680
0.401719 -0.0832359 0.0326668 16711680
0.401895 -0.082469 0.0329059 16711680
0.402105 -0.0816887 0.033192 16711680
0.402099 -0.0809942 0.0331856 16711680
0.401542 -0.0805162 0.032436 16711680
0.400482 -0.0802348 0.0310074 16711680
0.400557 -0.0795077 0.0311102 16711680
0.400414 -0.0788659 0.0309191 16711680
0.399689 -0.0784508 0.0299428 16711680
0.399057 -0.0779988 0.0290912 16711680
0.398805 -0.0773979 0.0287539 16711680
0.398413 -0.0768515 0.0282263 16711680
0.398255 -0.0762138 0.028015 16711680
0.385112 -0.0186732 0.010442 16711680
0.383611 -0.0156539 0.00842428 16711680
0.405076 -0.0890797 0.036038 16711680
0.404999 -0.0884142 0.0359365 16711680
0.405272 -0.0876077 0.0363077 16711680
0.405077 -0.0869898 0.036047 16711680
0.404845 -0.0863868 0.0357351 16711680
0.40415 -0.0859686 0.0347989 16711680
0.403731 -0.0854394 0.0342346 16711680
0.403835 -0.0847012 0.0343769 16711680
0.403056 -0.0843146 0.0333264 16711680
0.402394 -0.0838802 0.0324346 16711680
0.402332 -0.0832074 0.0323523 16711680
0.402317 -0.0825157 0.0323349 16711680
0.40268 -0.0816749 0.0328282 16711680
0.402782 -0.0809379 0.0329677 16711680
0.402453 -0.0803705 0.0325253 16711680
0.401472 -0.0800587 0.0312016 16711680
0.400822 -0.0796156 0.0303261 16711680
0.401013 -0.0788433 0.0305856 16711680
0.399954 -0.0785585 0.0291578 16711680
0.399182 -0.0781608 0.0281167 16711680
0.399053 -0.0775119 0.0279453 16711680
0.398745 -0.0769326 0.027531 16711680
0.38431 -0.0184031 0.00820649 16711680
0.382062 -0.0156122 0.00517905 16711680
0.406079 -0.0881959 0.036257 16711680
0.406135 -0.0874771 0.0363358 16711680
0.406117 -0.0867884 0.0363138 16711680
0.405867 -0.086193 0.0359778 16711680
0.405215 -0.0857581 0.0350989 16711680
0.404751 -0.0852472 0.0344738 16711680
0.404621 -0.0846029 0.0342993 16711680
0.404338 -0.084019 0.0339191 16711680
0.403504 -0.0836539 0.0327933 16711680
0.403125 -0.083107 0.0322832 16711680
0.402955 -0.082477 0.0320557 16711680
0.403177 -0.0816922 0.0323576 16711680
0.40342 -0.080899 0.0326898 16711680
0.403171 -0.0803007 0.0323544 16711680
0.403007 -0.0796682 0.0321354 16711680
0.407098 -0.0873061 0.0365 16711680
0.407026 -0.0866395 0.0364046 16711680
0.406783 -0.0860415 0.0360783 16711680
0.406556 -0.085437 0.0357729 16711680
0.405945 -0.0849856 0.0349486 16711680
0.405326 -0.0845367 0.034113 16711680
0.40532 -0.0838428 0.034107 16711680
0.404825 -0.0833431 0.0334401 16711680
0.403941 -0.0829974 0.0322459 16711680
0.403679 -0.0824042 0.0318931 16711680
0.403702 -0.0816979 0.031927 16711680
0.403933 -0.08091 0.0322413 16711680
0.403816 -0.080259 0.0320866 16711680
0.403684 -0.0796145 0.0319092 16711680
0.407928 -0.086493 0.0364878 16711680
0.407723 -0.08588 0.0362127 16711680
0.407617 -0.0852272 0.0360717 16711680
0.406978 -0.0847876 0.0352085 16711680
0.406425 -0.0843132 0.0344607 16711680
0.406179 -0.0837152 0.0341302 16711680
0.40579 -0.0831737 0.0336063 16711680
0.405191 -0.0827156 0.0327965 16711680
0.404501 -0.0822925 0.0318642 16711680
0.404285 -0.0816809 0.031574 16711680
0.404315 -0.080972 0.0316174 16711680
0.404193 -0.0803232 0.0314548 16711680
0.408729 -0.0856921 0.0364367 16711680
0.408469 -0.0851015 0.0360867 16711680
0.408098 -0.0845548 0.035587 16711680
0.407861 -0.0839544 0.0352681 16711680
0.407134 -0.0835494 0.0342838 16711680
