# .PCD v0.7 - Point Cloud Data file format
VERSION 0.7
FIELDS x y z rgb
SIZE 4 4 4 4
TYPE F F F F
COUNT 1 1 1 1
WIDTH 1268
HEIGHT 1
VIEWPOINT 0 0 0 1 0 0 0
POINTS 1268
DATA ascii
0.439923 0.0382996 0.0358721 16711680
0.439908 0.0389623 0.0358561 16711680
0.439764 0.0395902 0.0356587 16711680
0.439754 0.0402541 0.0356492 16711680
0.439635 0.0408888 0.0354873 16711680
0.439442 0.0415037 0.0352206 16711680
0.439394 0.0421577 0.0351588 16711680
0.439181 0.0427676 0.0348644 16711680
0.439158 0.0434281 0.0348368 16711680
0.438588 0.043944 0.0340407 16711680
0.438047 0.0444683 0.0332844 16711680
0.438409 0.0452306 0.0337985 16711680
0.438242 0.0458536 0.0335684 16711680
0.437869 0.0464231 0.0330496 16711680
0.437038 0.0468736 0.0318855 16711680
0.436599 0.0474272 0.0312734 16711680
0.436516 0.0480736 0.0311617 16711680
0.436122 0.0486396 0.0306122 16711680
0.435942 0.0492612 0.030364 16711680
0.435804 0.049894 0.0301759 16711680
0.435481 0.0504794 0.0297263 16711680
0.435464 0.0511432 0.0297076 16711680
0.435067 0.0517104 0.0291541 16711680
0.433211 0.0519081 0.0265485 16711680
0.444625 0.0234771 0.0412285 16711680
0.443907 0.0239351 0.0402225 16711680
0.440035 0.0248224 0.0347884 16711680
0.442173 0.0261041 0.0378036 16711680
0.44193 0.0267019 0.0374659 16711680
0.441615 0.0272799 0.0370288 16711680
0.441628 0.0279511 0.0370514 16711680
0.442831 0.0289598 0.0387516 16711680
0.442875 0.0296385 0.0388181 16711680
0.442047 0.0300716 0.0376576 16711680
0.441405 0.0305583 0.0367599 16711680
0.441645 0.0312928 0.0371026 16711680
0.441848 0.0320164 0.0373931 16711680
0.441303 0.0325315 0.0366321 16711680
0.440603 0.033004 0.0356516 16711680
0.440482 0.033638 0.0354866 16711680
0.441447 0.0345722 0.0368508 16711680
0.441851 0.0353502 0.0374248 16711680
0.441629 0.0359553 0.0371166 16711680
0.440643 0.0363516 0.0357347 16711680
0.439911 0.0368187 0.0347096 16711680
0.440508 0.0376486 0.0355546 16711680
0.44055 0.0383267 0.0356182 16711680
0.440529 0.0389878 0.035594 16711680
0.440311 0.0395957 0.0352932 16711680
0.440321 0.040265 0.0353119 16711680
0.440174 0.0408922 0.0351105 16711680
0.440126 0.041546 0.0350482 16711680
0.440016 0.0421831 0.0348983 16711680
0.439904 0.0428198 0.0347458 16711680
0.439665 0.0434228 0.0344143 16711680
0.439207 0.0439682 0.0337746 16711680
0.439242 0.0446442 0.0338287 16711680
0.43918 0.0452947 0.033747 16711680
0.439238 0.0459767 0.0338343 16711680
0.439063 0.0465972 0.0335922 16711680
0.438627 0.0471501 0.0329838 16711680
0.43827 0.0477243 0.0324872 16711680
0.437536 0.048201 0.0314587 16711680
0.437049 0.0487427 0.030779 16711680
0.436947 0.0493839 0.0306393 16711680
0.436571 0.0499551 0.0301156 16711680
0.436283 0.0505492 0.0297147 16711680
0.436215 0.0511998 0.0296243 16711680
0.435862 0.051778 0.0291327 16711680
0.435234 0.0522868 0.0282538 16711680
0.445284 0.0235162 0.041024 16711680
0.444623 0.0239907 0.0400984 16711680
0.440279 0.0247408 0.0339922 16711680
0.443394 0.0263032 0.0383875 16711680
0.442891 0.0268265 0.0376852 16711680
0.44222 0.0273024 0.0367448 16711680
0.442302 0.0279933 0.0368657 16711680
0.443276 0.028937 0.038244 16711680
0.443685 0.0297192 0.0388259 16711680
0.44327 0.0302683 0.0382462 16711680
0.442514 0.0307221 0.0371858 16711680
0.442057 0.0312607 0.0365466 16711680
0.442444 0.0320361 0.0370979 16711680
0.441987 0.0325753 0.0364587 16711680
0.441452 0.0330937 0.0357111 16711680
0.44141 0.0337493 0.035657 16711680
0.441866 0.0345425 0.0363048 16711680
0.442482 0.035379 0.0371777 16711680
0.442497 0.0360493 0.0372045 16711680
0.441768 0.0365157 0.0361832 16711680
0.440907 0.0369467 0.0349745 16711680
0.441313 0.0377245 0.0355525 16711680
0.441467 0.0384328 0.035774 16711680
0.441321 0.0390598 0.035574 16711680
0.440869 0.0396041 0.0349424 16711680
0.440805 0.0402537 0.0348583 16711680
0.440623 0.0408714 0.0346071 16711680
0.440481 0.0414998 0.0344111 16711680
0.440481 0.0421666 0.0344173 16711680
0.440568 0.0428563 0.0345447 16711680
0.440197 0.0434242 0.0340276 16711680
0.439741 0.0439702 0.0333904 16711680
0.439911 0.0446819 0.0336355 16711680
0.439888 0.0453424 0.033608 16711680
0.439891 0.0460097 0.0336175 16711680
0.43968 0.0466209 0.0333252 16711680
0.439654 0.0472805 0.0332936 16711680
0.439434 0.0478896 0.0329887 16711680
0.439299 0.0485213 0.0328046 16711680
0.439172 0.0491548 0.0326303 16711680
0.438756 0.0497139 0.0320486 16711680
0.438065 0.0502032 0.0310811 16711680
0.437743 0.0507878 0.0306323 16711680
0.437209 0.0513186 0.0298847 16711680
0.437141 0.0519691 0.0297952 16711680
0.436749 0.052537 0.0292478 16711680
0.445928 0.0235509 0.0407987 16711680
0.445357 0.0240512 0.0399987 16711680
0.440908 0.0247701 0.0337397 16711680
0.444215 0.0263881 0.038411 16711680
0.443579 0.0268729 0.0375195 16711680
0.442957 0.0273624 0.0366467 16711680
0.443033 0.0280515 0.0367595 16711680
0.443489 0.0288482 0.0374082 16711680
0.444454 0.029788 0.038775 16711680
0.444247 0.0303956 0.0384883 16711680
0.443513 0.0308551 0.0374585 16711680
0.44279 0.0313188 0.0364441 16711680
0.443273 0.0321209 0.0371312 16711680
0.442772 0.0326477 0.0364304 16711680
0.442422 0.0332169 0.035941 16711680
0.442162 0.0338117 0.0355799 16711680
0.442245 0.0345019 0.0357029 16711680
0.442908 0.0353516 0.0366435 16711680
0.443274 0.0361185 0.0371653 16711680
0.442725 0.0366338 0.0363966 16711680
0.442169 0.037148 0.0356181 16711680
0.442026 0.0377755 0.0354218 16711680
0.442592 0.0385957 0.0362244 16711680
0.442176 0.0391489 0.0356432 16711680
0.441532 0.0396411 0.0347413 16711680
0.441325 0.0402517 0.0344537 16711680
0.441107 0.0408599 0.0341526 16711680
0.440939 0.0414816 0.0339208 16711680
0.440982 0.0421596 0.033986 16711680
0.441279 0.0429054 0.0344106 16711680
0.440779 0.043439 0.0337112 16711680
0.44032 0.0439837 0.0330682 16711680
0.440434 0.0446807 0.0332348 16711680
0.440428 0.0453456 0.0332311 16711680
0.440467 0.0460224 0.0332916 16711680
0.440221 0.0466245 0.0329504 16711680
0.440226 0.0472922 0.0329628 16711680
0.440026 0.0479066 0.0326862 16711680
0.439957 0.048555 0.0325935 16711680
0.439796 0.0491798 0.0323724 16711680
0.439693 0.0498196 0.032232 16711680
0.439625 0.0504684 0.0321413 16711680
0.439511 0.0511055 0.0319856 16711680
0.439477 0.0517633 0.0319442 16711680
0.439227 0.0523657 0.0315962 16711680
0.439105 0.0530009 0.0314288 16711680
0.438736 0.053574 0.0309147 16711680
0.446622 0.0236004 0.0406449 16711680
0.446184 0.0241389 0.0400312 16711680
0.441589 0.0248144 0.0335615 16711680
0.445 0.0264625 0.0383824 16711680
0.444272 0.0269206 0.0373598 16711680
0.44387 0.027473 0.036799 16711680
0.443802 0.0281208 0.0367082 16711680
0.443846 0.0288004 0.0367758 16711680
0.444884 0.0297612 0.0382471 16711680
0.445147 0.0305014 0.0386236 16711680
0.444503 0.030986 0.0377206 16711680
0.443844 0.0314671 0.0367955 16711680
0.443851 0.0321356 0.0368108 16711680
0.443737 0.0327701 0.0366547 16711680
0.44334 0.0333261 0.0361 16711680
0.442918 0.0338755 0.0355093 16711680
0.442839 0.0345207 0.0354046 16711680
0.443209 0.0352894 0.0359313 16711680
0.44395 0.0361598 0.0369835 16711680
0.443993 0.0368375 0.0370501 16711680
0.443371 0.0373327 0.0361769 16711680
0.442695 0.0378143 0.0352284 16711680
0.443124 0.0385975 0.03584 16711680
0.442987 0.0392263 0.035652 16711680
0.442381 0.0397284 0.0348021 16711680
0.441964 0.0402821 0.0342182 16711680
0.441641 0.0408617 0.0337676 16711680
0.441359 0.0414528 0.0333749 16711680
0.44145 0.0421441 0.0335093 16711680
0.44196 0.0429466 0.0342344 16711680
0.441419 0.0434688 0.0334758 16711680
0.44083 0.0439794 0.0326506 16711680
0.441042 0.0447022 0.0329551 16711680
0.441019 0.0453626 0.0329275 16711680
0.441017 0.0460284 0.0329297 16711680
0.440802 0.0466386 0.0326321 16711680
0.440757 0.0472934 0.0325748 16711680
0.440518 0.0478975 0.0322425 16711680
0.440445 0.0485449 0.0321447 16711680
0.440299 0.0491736 0.0319444 16711680
0.440218 0.0498189 0.0318344 16711680
0.44016 0.0504705 0.0317587 16711680
0.440148 0.0511336 0.0317466 16711680
0.440053 0.0517755 0.0316178 16711680
0.440021 0.0524336 0.0315778 16711680
0.439962 0.0530847 0.0315 16711680
0.439595 0.0536578 0.0309877 16711680
0.4473 0.023645 0.0404679 16711680
0.447114 0.0242568 0.0402112 16711680
0.442056 0.024797 0.03308 16711680
0.44568 0.0265071 0.0382075 16711680
0.445004 0.0269797 0.0372571 16711680
0.444686 0.0275558 0.036814 16711680
0.444417 0.0281462 0.0364399 16711680
0.444382 0.0288033 0.0363957 16711680
0.44505 0.0296596 0.0373462 16711680
0.445897 0.0305649 0.0385473 16711680
0.445692 0.031173 0.0382645 16711680
0.444915 0.0316204 0.0371722 16711680
0.444303 0.0321149 0.0363121 16711680
0.444534 0.032846 0.0366446 16711680
0.444296 0.033446 0.0363139 16711680
0.443596 0.0339179 0.0353308 16711680
0.443479 0.0345521 0.0351701 16711680
0.443628 0.0352601 0.0353869 16711680
0.444388 0.0361359 0.0364668 16711680
0.444891 0.0369397 0.0371825 16711680
0.44422 0.0374213 0.0362397 16711680
0.443461 0.0378798 0.0351733 16711680
0.443614 0.0385877 0.0353949 16711680
0.443544 0.0392346 0.0353013 16711680
0.443206 0.0398091 0.0348295 16711680
0.442649 0.0403249 0.034048 16711680
0.442151 0.0408574 0.0333503 16711680
0.441863 0.0414468 0.0329489 16711680
0.442014 0.0421539 0.033167 16711680
0.442745 0.0430156 0.0342059 16711680
0.442093 0.0435082 0.0332901 16711680
0.441443 0.0440021 0.0323774 16711680
0.441671 0.0447292 0.0327051 16711680
0.441791 0.0454272 0.0328796 16711680
0.441635 0.0460524 0.0326644 16711680
0.441316 0.0466352 0.0322198 16711680
0.441234 0.0472802 0.0321094 16711680
0.441014 0.0478894 0.0318042 16711680
0.440888 0.048523 0.0316312 16711680
0.440775 0.0491603 0.0314777 16711680
0.440693 0.0498054 0.0313661 16711680
0.44063 0.0504556 0.0312829 16711680
0.440552 0.0511021 0.0311788 16711680
0.440518 0.0517597 0.0311362 16711680
0.440481 0.0524165 0.0310891 16711680
0.440459 0.053077 0.0310632 16711680
0.4402 0.0536774 0.0307026 16711680
0.4479 0.0236672 0.0401819 16711680
0.447904 0.024334 0.0401936 16711680
0.442515 0.0247775 0.0325882 16711680
0.446427 0.0265709 0.0381274 16711680
0.445863 0.0270755 0.0373352 16711680
0.445556 0.0276543 0.0369067 16711680
0.445068 0.0281817 0.0362214 16711680
0.444882 0.0287959 0.0359644 16711680
0.445397 0.0296089 0.0366991 16711680
0.446433 0.0305682 0.0381701 16711680
0.446628 0.0312887 0.0384516 16711680
0.445882 0.0317444 0.0374024 16711680
0.445141 0.0322025 0.0363598 16711680
0.445171 0.0328771 0.0364079 16711680
0.445013 0.0334992 0.0361899 16711680
0.44449 0.03402 0.0354561 16711680
0.444205 0.0346076 0.0350593 16711680
0.444086 0.0352413 0.0348965 16711680
0.444813 0.0361081 0.0359302 16711680
0.445535 0.0369725 0.0369574 16711680
0.445122 0.0375244 0.0363785 16711680
0.444485 0.0380158 0.0354829 16711680
0.444047 0.0385623 0.034869 16711680
0.444024 0.0392223 0.034843 16711680
0.443935 0.0398641 0.0347222 16711680
0.44347 0.0404044 0.0340699 16711680
0.442753 0.0408777 0.0330625 16711680
0.442468 0.0414678 0.0326645 16711680
0.442686 0.042193 0.0329791 16711680
0.443534 0.0430859 0.034184 16711680
0.442824 0.0435625 0.0331845 16711680
0.442087 0.0440331 0.0321479 16711680
0.442422 0.0447885 0.0326276 16711680
0.442487 0.0454719 0.0327251 16711680
0.442237 0.0460722 0.0323766 16711680
0.44185 0.0466369 0.0318346 16711680
0.441755 0.0472785 0.0317061 16711680
0.441522 0.0478844 0.031383 16711680
0.441377 0.0485131 0.0311829 16711680
0.441271 0.0491521 0.0310385 16711680
0.441157 0.0497892 0.030883 16711680
0.441104 0.0504419 0.0308133 16711680
0.440996 0.0510805 0.0306656 16711680
0.440977 0.0517422 0.0306451 16711680
0.440918 0.0523934 0.030567 16711680
0.440904 0.0530561 0.0305531 16711680
0.440722 0.0536759 0.0303004 16711680
0.448592 0.0237163 0.0400264 16711680
0.448575 0.0243766 0.0400072 16711680
0.447553 0.0267438 0.0385845 16711680
0.446866 0.0272124 0.0376172 16711680
0.44634 0.0277282 0.0368782 16711680
0.445779 0.0282348 0.03609 16711680
0.445568 0.0288415 0.0357966 16711680
0.445865 0.0295928 0.036224 16711680
0.446702 0.030496 0.0374147 16711680
0.44733 0.0313388 0.0383092 16711680
0.446771 0.0318468 0.0375241 16711680
0.445944 0.0322803 0.0363586 16711680
0.445828 0.032914 0.0362006 16711680
0.445693 0.0335425 0.0360157 16711680
0.445497 0.034154 0.0357438 16711680
0.445036 0.0346922 0.0350968 16711680
0.444624 0.0352445 0.0345185 16711680
0.445267 0.0360885 0.0354356 16711680
0.446011 0.036959 0.0364947 16711680
0.446027 0.0376287 0.036523 16711680
0.44578 0.0382262 0.0361785 16711680
0.44496 0.0386679 0.0350236 16711680
0.44456 0.0392251 0.0344634 16711680
0.444532 0.0398833 0.0344288 16711680
0.444111 0.0404355 0.033839 16711680
0.443346 0.0408955 0.0327617 16711680
0.443254 0.0415373 0.0326365 16711680
0.44341 0.0422457 0.0328633 16711680
0.444277 0.0431436 0.0340961 16711680
0.443586 0.0436251 0.0331235 16711680
0.442816 0.0440868 0.0320398 16711680
0.443034 0.0448109 0.0323535 16711680
0.443298 0.045547 0.0327337 16711680
0.442869 0.0461 0.0321319 16711680
0.442458 0.0466584 0.0315561 16711680
0.442373 0.0473024 0.0314411 16711680
0.44205 0.0478845 0.0309895 16711680
0.441902 0.0485126 0.0307862 16711680
0.441768 0.0491443 0.0306015 16711680
0.441633 0.0497759 0.030416 16711680
0.441589 0.0504311 0.0303597 16711680
0.441458 0.0510638 0.0301794 16711680
0.441461 0.051731 0.0301895 16711680
0.441379 0.0523763 0.0300784 16711680
0.4414 0.053048 0.0301142 16711680
0.441206 0.0536648 0.0298445 16711680
0.449304 0.0237711 0.0398995 16711680
0.449235 0.0244163 0.039807 16711680
0.448621 0.0269001 0.0389606 16711680
0.447824 0.0273369 0.0378377 16711680
0.447013 0.0277705 0.0366935 16711680
0.446542 0.0283025 0.0360322 16711680
0.446468 0.028948 0.035933 16711680
0.446389 0.0295923 0.0358275 16711680
0.447006 0.0304336 0.0367082 16711680
0.447976 0.0313732 0.0380887 16711680
0.44765 0.0319466 0.0376328 16711680
0.447121 0.0324633 0.0368887 16711680
0.446469 0.0329462 0.0359696 16711680
0.446242 0.033549 0.0356545 16711680
0.446248 0.0342166 0.0356686 16711680
0.445935 0.0347957 0.0352314 16711680
0.445323 0.0352924 0.0343693 16711680
0.445796 0.0360893 0.0350455 16711680
0.446339 0.0369046 0.0358211 16711680
0.446722 0.0376753 0.0363702 16711680
0.446607 0.0383087 0.0362126 16711680
0.446073 0.038828 0.0354613 16711680
0.445385 0.0393062 0.0344923 16711680
0.445312 0.0399523 0.0343955 16711680
0.444787 0.040476 0.033657 16711680
0.444417 0.0410422 0.0331382 16711680
0.444214 0.041654 0.0328573 16711680
0.444383 0.0423653 0.0331014 16711680
0.445076 0.0432167 0.0340899 16711680
0.444482 0.0437238 0.0332541 16711680
0.44358 0.0441497 0.0319812 16711680
0.44381 0.044877 0.0323129 16711680
0.44407 0.0456117 0.0326867 16711680
0.443551 0.0461409 0.0319577 16711680
0.443156 0.0467032 0.031404 16711680
0.442972 0.0473212 0.0311488 16711680
0.442582 0.0478858 0.0306021 16711680
0.442459 0.0485203 0.0304334 16711680
0.442288 0.0491424 0.0301967 16711680
0.442153 0.049774 0.0300117 16711680
0.442111 0.0504295 0.0299568 16711680
0.442003 0.0510684 0.0298107 16711680
0.441979 0.0517285 0.0297811 16711680
0.441888 0.0523717 0.0296586 16711680
0.441885 0.0530372 0.0296599 16711680
0.441732 0.0536646 0.0294491 16711680
0.447979 0.0225647 0.0368769 16711680
0.449769 0.023754 0.0394225 16711680
0.449965 0.0244762 0.0397056 16711680
0.449457 0.0269899 0.0390099 16711680
0.448471 0.0273718 0.0376167 16711680
0.447734 0.0278265 0.0365771 16711680
0.447313 0.0283728 0.0359869 16711680
0.447223 0.0290135 0.0358648 16711680
0.44693 0.0295968 0.0354557 16711680
0.447513 0.0304282 0.0362878 16711680
0.448454 0.03136 0.037629 16711680
0.448677 0.032088 0.0379519 16711680
0.448285 0.0326428 0.0374019 16711680
0.447517 0.0330928 0.0363182 16711680
0.446965 0.0336042 0.0355412 16711680
0.447001 0.0342801 0.0355982 16711680
0.44672 0.0348678 0.0352052 16711680
0.446203 0.0353906 0.0344785 16711680
0.446298 0.0360829 0.0346185 16711680
0.446619 0.0368372 0.03508 16711680
0.447168 0.0376536 0.0358651 16711680
0.4473 0.0383548 0.0360578 16711680
0.447117 0.0389696 0.0358037 16711680
0.44677 0.0395403 0.0353185 16711680
0.445959 0.0399852 0.0341736 16711680
0.445572 0.0405461 0.0336303 16711680
0.445394 0.041164 0.0333844 16711680
0.445008 0.0417259 0.0328423 16711680
0.445509 0.0425262 0.033558 16711680
0.445894 0.0432947 0.0341101 16711680
0.445439 0.0438386 0.0334709 16711680
0.44441 0.0442303 0.0320169 16711680
0.444352 0.0448811 0.0319406 16711680
0.44476 0.0456551 0.0325258 16711680
0.444157 0.0461618 0.0316767 16711680
0.443847 0.0467464 0.0312428 16711680
0.443628 0.047355 0.0309373 16711680
0.443235 0.0479185 0.0303856 16711680
0.443163 0.0485663 0.03029 16711680
0.442872 0.0491572 0.0298835 16711680
0.442731 0.0497869 0.0296881 16711680
0.442655 0.0504339 0.0295864 16711680
0.442542 0.0510713 0.0294325 16711680
0.442533 0.0517354 0.0294253 16711680
0.442438 0.0523775 0.0292968 16711680
0.442434 0.0530428 0.0292972 16711680
0.442296 0.0536737 0.029106 16711680
0.448509 0.0225662 0.0364895 16711680
0.450134 0.0237075 0.0388029 16711680
0.450753 0.0245531 0.0396873 16711680
0.450191 0.0270504 0.0389143 16711680
0.44933 0.0274681 0.0376986 16711680
0.448627 0.0279322 0.0367067 16711680
0.448116 0.0284519 0.0359861 16711680
0.447968 0.0290762 0.0357832 16711680
0.447495 0.0296081 0.0351177 16711680
0.44805 0.0304317 0.0359111 16711680
0.448649 0.0312669 0.0367677 16711680
0.449336 0.0321259 0.0377494 16711680
0.449154 0.0327395 0.0374973 16711680
0.448593 0.033247 0.036706 16711680
0.44804 0.0337579 0.0359282 16711680
0.447691 0.0343259 0.0354375 16711680
0.447451 0.0349248 0.0351028 16711680
0.447194 0.0355194 0.0347441 16711680
0.446973 0.0361243 0.0344374 16711680
0.447173 0.0368453 0.0347275 16711680
0.447588 0.0376247 0.0353217 16711680
0.447966 0.0383933 0.0358645 16711680
0.448098 0.0390942 0.0360578 16711680
0.447708 0.0396525 0.0355102 16711680
0.446945 0.0401102 0.0344331 16711680
0.446366 0.0406188 0.0336176 16711680
0.446289 0.0412635 0.0335138 16711680
0.445852 0.0418115 0.0328999 16711680
0.446322 0.0426034 0.0335729 16711680
0.446808 0.0433987 0.034268 16711680
0.446207 0.0439032 0.033421 16711680
0.445277 0.0443212 0.0321075 16711680
0.445044 0.0449251 0.0317825 16711680
0.445566 0.0457291 0.0325294 16711680
0.444946 0.046231 0.0316548 16711680
0.444716 0.0468362 0.0313339 16711680
0.444301 0.0473935 0.0307516 16711680
0.443937 0.0479645 0.0302409 16711680
0.44393 0.0486287 0.0302358 16711680
0.44355 0.0491961 0.0297021 16711680
0.443366 0.0498149 0.0294472 16711680
0.443251 0.0504516 0.0292897 16711680
0.443111 0.0510819 0.0290965 16711680
0.443095 0.0517443 0.0290805 16711680
0.443007 0.052388 0.0289605 16711680
0.443026 0.0530592 0.0289941 16711680
0.442876 0.0536871 0.0287865 16711680
0.449045 0.0225694 0.0361106 16711680
0.450529 0.0236699 0.038226 16711680
0.451473 0.0246106 0.0395741 16711680
0.447776 0.0262034 0.0343446 16711680
0.450005 0.0275112 0.0375181 16711680
0.44936 0.0279918 0.0366082 16711680
0.449171 0.0286035 0.0363456 16711680
0.44877 0.029155 0.0357815 16711680
0.448279 0.0296814 0.03509 16711680
0.448563 0.0304283 0.0354998 16711680
0.448834 0.0311708 0.0358911 16711680
0.449712 0.032084 0.0371451 16711680
0.449924 0.0328087 0.0374534 16711680
0.44986 0.0334553 0.0373685 16711680
0.449334 0.0339728 0.0366271 16711680
0.448503 0.0344061 0.0354528 16711680
0.448193 0.0349853 0.0350182 16711680
0.448069 0.0356164 0.0348477 16711680
0.447787 0.036204 0.0344535 16711680
0.447671 0.0368377 0.0342945 16711680
0.447891 0.0375638 0.0346134 16711680
0.44841 0.0383714 0.0353575 16711680
0.448784 0.0391385 0.035895 16711680
0.448519 0.0397306 0.0355241 16711680
0.448139 0.0402918 0.0349896 16711680
0.447497 0.0407828 0.0340842 16711680
0.447063 0.0413305 0.0334724 16711680
0.446618 0.0418762 0.0328472 16711680
0.446992 0.0426421 0.0333841 16711680
0.447642 0.0434813 0.0343136 16711680
0.446994 0.0439729 0.0333987 16711680
0.446174 0.0444197 0.0322397 16711680
0.445669 0.0449512 0.0315281 16711680
0.446212 0.0457608 0.032306 16711680
0.446062 0.0463864 0.0320982 16711680
0.445606 0.0469319 0.0314567 16711680
0.445051 0.0474519 0.030674 16711680
0.444744 0.0480376 0.0302439 16711680
0.444628 0.0486733 0.0300847 16711680
0.44413 0.0492099 0.0293832 16711680
0.444035 0.0498517 0.0292547 16711680
0.443828 0.0504644 0.0289657 16711680
0.443719 0.0511027 0.0288171 16711680
0.443667 0.0517559 0.0287502 16711680
0.443548 0.0523916 0.0285864 16711680
0.44356 0.053061 0.0286099 16711680
0.443516 0.0537159 0.028553 16711680
0.443381 0.0543476 0.0283663 16711680
0.449584 0.0225734 0.0357358 16711680
0.450878 0.0236187 0.0375835 16711680
0.452311 0.0247024 0.0396289 16711680
0.451946 0.0252606 0.0391151 16711680
0.451037 0.0276574 0.0378476 16711680
0.450598 0.0281966 0.03723 16711680
0.450025 0.0286977 0.0364199 16711680
0.449557 0.0292297 0.0357605 16711680
0.44936 0.0298395 0.0354865 16711680
0.44924 0.0304716 0.0353231 16711680
0.449354 0.0311696 0.0354908 16711680
0.449734 0.0319426 0.0360384 16711680
0.450461 0.0328124 0.037079 16711680
0.450718 0.0335489 0.0374498 16711680
0.450253 0.0340832 0.0367955 16711680
0.449491 0.034535 0.0357165 16711680
0.448983 0.035059 0.0350013 16711680
0.448757 0.0356617 0.0346863 16711680
0.448754 0.0363262 0.0346881 16711680
0.448521 0.0369272 0.0343627 16711680
0.448423 0.0375657 0.0342296 16711680
0.44883 0.0383427 0.0348148 16711680
0.449269 0.0391277 0.0354458 16711680
0.449194 0.0397717 0.0353451 16711680
0.449236 0.0404475 0.0354109 16711680
0.448781 0.0409883 0.0347689 16711680
0.447882 0.0414098 0.0334964 16711680
0.447543 0.0419837 0.0330207 16711680
0.447745 0.0427032 0.0333139 16711680
0.44845 0.0435573 0.0343235 16711680
0.447769 0.0440396 0.0333604 16711680
0.447032 0.0445082 0.0323188 16711680
0.446734 0.0450943 0.0319002 16711680
0.446846 0.0457895 0.0320665 16711680
0.446899 0.0464687 0.032148 16711680
0.446368 0.0469939 0.0313978 16711680
0.445734 0.047493 0.0305027 16711680
0.445621 0.0481292 0.0303479 16711680
0.445273 0.0487042 0.0298593 16711680
0.444811 0.0492499 0.0292077 16711680
0.444634 0.0498704 0.0289632 16711680
0.444396 0.0504751 0.0286305 16711680
0.444345 0.0511282 0.0285635 16711680
0.444265 0.0517738 0.0284556 16711680
0.444164 0.0524142 0.0283179 16711680
0.444143 0.0530752 0.0282949 16711680
0.44413 0.0537379 0.0282823 16711680
0.444094 0.0543948 0.0282369 16711680
0.450129 0.0225794 0.0353705 16711680
0.451295 0.0235873 0.0370365 16711680
0.45296 0.0247391 0.0394148 16711680
0.452838 0.0253678 0.0392467 16711680
0.452555 0.0279434 0.0388693 16711680
0.451497 0.0283042 0.0373703 16711680
0.450787 0.0287657 0.0363646 16711680
0.450205 0.0292651 0.035543 16711680
0.450215 0.0299336 0.0355631 16711680
0.449895 0.0305084 0.0351138 16711680
0.449969 0.0311951 0.0352255 16711680
0.45012 0.0319035 0.0354474 16711680
0.450833 0.0327696 0.0364695 16711680
0.451509 0.0336239 0.0374374 16711680
0.451402 0.034258 0.0372914 16711680
0.450954 0.0347972 0.0366607 16711680
0.450135 0.0352335 0.0355005 16711680
0.449585 0.0357456 0.0347234 16711680
0.449738 0.0364531 0.0349472 16711680
0.449412 0.0370281 0.0344893 16711680
0.449122 0.0376134 0.0340828 16711680
0.449328 0.0383352 0.0343827 16711680
0.449689 0.039099 0.0349033 16711680
0.449862 0.0398106 0.0351553 16711680
0.450086 0.040536 0.0354815 16711680
0.449791 0.0411201 0.0350678 16711680
0.449565 0.041723 0.0347513 16711680
0.448683 0.0421495 0.0335023 16711680
0.448384 0.0427338 0.0330824 16711680
0.449102 0.0435913 0.0341109 16711680
0.4486 0.0441213 0.0334022 16711680
0.447995 0.0446247 0.0325474 16711680
0.447647 0.0451973 0.0320587 16711680
0.44769 0.0458738 0.0321257 16711680
0.447725 0.0465479 0.032181 16711680
0.447181 0.0470695 0.0314133 16711680
0.44667 0.0476005 0.0306921 16711680
0.446561 0.0482373 0.0305423 16711680
0.44597 0.0487487 0.0297079 16711680
0.445616 0.0493223 0.0292097 16711680
0.445468 0.0499499 0.0290052 16711680
0.445065 0.0505117 0.0284377 16711680
0.445092 0.0511848 0.0284818 16711680
0.445076 0.0518467 0.028465 16711680
0.445219 0.0525496 0.0286757 16711680
0.444914 0.0531373 0.0282468 16711680
0.445132 0.0538588 0.0285635 16711680
0.444866 0.054457 0.0281918 16711680
0.450668 0.0225835 0.0349958 16711680
0.451686 0.0235483 0.0364531 16711680
0.45357 0.0247643 0.039145 16711680
0.453541 0.0254204 0.039111 16711680
0.453201 0.0279788 0.0386519 16711680
0.452245 0.0283683 0.037295 16711680
0.451535 0.0288297 0.0362898 16711680
0.450963 0.0293316 0.035481 16711680
0.450933 0.0299887 0.0354451 16711680
0.450576 0.0305527 0.0349424 16711680
0.450623 0.0312319 0.0350168 16711680
0.450697 0.0319181 0.0351276 16711680
0.451216 0.0327299 0.0358751 16711680
0.451889 0.0335836 0.0368402 16711680
0.452338 0.0343735 0.0374863 16711680
0.451952 0.0349294 0.0369422 16711680
0.451288 0.0354085 0.0360025 16711680
0.450429 0.0358345 0.0347857 16711680
0.450444 0.0365033 0.0348125 16711680
0.450346 0.0371411 0.0346791 16711680
0.450051 0.0377247 0.0342656 16711680
0.449965 0.038366 0.0341494 16711680
0.450119 0.0390729 0.0343745 16711680
0.450333 0.039796 0.0346861 16711680
0.450734 0.0405697 0.0352646 16711680
0.45087 0.0412705 0.0354646 16711680
0.450607 0.0418629 0.0350953 16711680
0.450056 0.0423782 0.0343171 16711680
0.449402 0.0428664 0.0333915 16711680
0.449775 0.0436311 0.0339293 16711680
0.449592 0.0442463 0.033675 16711680
0.449234 0.0448151 0.0331714 16711680
0.448511 0.0452872 0.0321469 16711680
0.448659 0.0459912 0.0323635 16711680
0.44858 0.046635 0.0322578 16711680
0.447865 0.0471111 0.0312445 16711680
0.447668 0.0477245 0.0309706 16711680
0.447244 0.0482786 0.0303732 16711680
0.446735 0.0488109 0.0296534 16711680
0.446544 0.0494267 0.0293869 16711680
0.446268 0.0500208 0.0290005 16711680
0.446883 0.0508458 0.0298831 16711680
0.448681 0.051975 0.032452 16711680
0.449378 0.052818 0.0334511 16711680
0.448936 0.0533676 0.0328269 16711680
0.448342 0.0538791 0.0319875 16711680
0.448091 0.0544788 0.0316359 16711680
0.45123 0.0225942 0.0346537 16711680
0.452163 0.0235346 0.0359921 16711680
0.454003 0.0247381 0.0386239 16711680
0.454344 0.0255019 0.0391175 16711680
0.452386 0.0289236 0.0363637 16711680
0.452183 0.0295306 0.0360806 16711680
0.451856 0.0301024 0.0356206 16711680
0.451503 0.030667 0.0351226 16711680
0.451421 0.0313092 0.0350122 16711680
0.451233 0.0319214 0.0347507 16711680
0.451656 0.0327061 0.0353613 16711680
0.452075 0.0334887 0.0359654 16711680
0.452909 0.0343868 0.0371612 16711680
0.452815 0.0350244 0.0370344 16711680
0.452441 0.0355838 0.0365069 16711680
0.45184 0.0360806 0.035656 16711680
0.451064 0.0365299 0.0345559 16711680
0.450917 0.037154 0.0343525 16711680
0.450919 0.0378192 0.0343611 16711680
0.450591 0.0383938 0.0339003 16711680
0.450579 0.0390552 0.0338889 16711680
0.450763 0.0397703 0.0341588 16711680
0.451202 0.0405542 0.0347906 16711680
0.451509 0.0413017 0.0352359 16711680
0.451368 0.0419271 0.0350405 16711680
0.451133 0.0425275 0.0347128 16711680
0.450747 0.0430871 0.0341675 16711680
0.450382 0.0436532 0.0336542 16711680
0.450663 0.0443925 0.0340612 16711680
0.450092 0.044904 0.0332533 16711680
0.449392 0.0453819 0.0322614 16711680
0.449425 0.046055 0.0323136 16711680
0.449444 0.0467247 0.032348 16711680
0.448874 0.0472386 0.0315409 16711680
0.448565 0.047822 0.0311062 16711680
0.447901 0.0483129 0.030166 16711680
0.44754 0.0488838 0.0296578 16711680
0.447719 0.0495957 0.0299183 16711680
0.449346 0.0506836 0.0322461 16711680
0.45035 0.0516073 0.0336835 16711680
0.450456 0.0522976 0.0338414 16711680
0.450244 0.0529057 0.0335453 16711680
0.450177 0.0535513 0.033456 16711680
0.449808 0.0541196 0.0329359 16711680
0.4494 0.0546787 0.0323611 16711680
0.452208 0.0227276 0.0349075 16711680
0.452614 0.0235131 0.0354939 16711680
0.454385 0.0246968 0.0380296 16711680
0.455412 0.0256606 0.0395023 16711680
0.454765 0.0261362 0.0385849 16711680
0.453492 0.0290905 0.0368016 16711680
0.453003 0.029615 0.036109 16711680
0.452639 0.030176 0.0355958 16711680
0.452465 0.0307916 0.0353544 16711680
0.452294 0.031408 0.0351162 16711680
0.452015 0.0319943 0.0347253 16711680
0.452185 0.0327075 0.0349751 16711680
0.452405 0.0334341 0.035295 16711680
0.453234 0.0343313 0.036486 16711680
0.453573 0.0350899 0.0369761 16711680
0.453597 0.03576 0.0370166 16711680
0.453016 0.0362619 0.0361937 16711680
0.452226 0.0367066 0.0350728 16711680
0.451602 0.0371982 0.0341877 16711680
0.451906 0.0379467 0.0346286 16711680
0.451488 0.0384962 0.0340387 16711680
0.451398 0.0391359 0.0339159 16711680
0.451248 0.0397595 0.0337094 16711680
0.45165 0.0405335 0.0342894 16711680
0.45198 0.0412873 0.0347675 16711680
0.451964 0.0419467 0.0347513 16711680
0.45212 0.0426525 0.0349807 16711680
0.451737 0.0432127 0.0344406 16711680
0.451175 0.0437253 0.0336444 16711680
0.451412 0.0444525 0.0339884 16711680
0.450984 0.0450018 0.0333835 16711680
0.450402 0.0455109 0.0325601 16711680
0.450211 0.0461244 0.0322936 16711680
0.450013 0.0467363 0.0320176 16711680
0.449892 0.0473687 0.0318515 16711680
0.449436 0.0479128 0.0312057 16711680
0.449043 0.0484744 0.0306516 16711680
0.449961 0.0493792 0.0319685 16711680
0.450895 0.0502865 0.033308 16711680
0.451083 0.0509987 0.0335836 16711680
0.450925 0.0516205 0.0333639 16711680
0.450955 0.0522912 0.0334136 16711680
0.450773 0.0529071 0.0331606 16711680
0.450726 0.0535577 0.0330994 16711680
0.450423 0.0541429 0.0326736 16711680
0.450205 0.0547501 0.0323685 16711680
0.450016 0.0553648 0.0321041 16711680
0.44905 0.055783 0.0307326 16711680
0.453113 0.0228394 0.0350566 16711680
0.453097 0.0235009 0.0350405 16711680
0.454851 0.0246801 0.0375544 16711680
0.456247 0.0257518 0.0395565 16711680
0.455753 0.0262716 0.0388575 16711680
0.454563 0.0285832 0.037183 16711680
0.45408 0.0291089 0.0365001 16711680
0.453627 0.0296439 0.0358599 16711680
0.453273 0.0302076 0.0353605 16711680
0.453135 0.0308332 0.0351698 16711680
0.452933 0.0314408 0.0348881 16711680
0.452868 0.0320871 0.0348005 16711680
0.452752 0.0327194 0.0346422 16711680
0.452816 0.0334022 0.0347401 16711680
0.453166 0.0341652 0.0352471 16711680
0.453924 0.0350416 0.0363369 16711680
0.454301 0.0358105 0.036883 16711680
0.453932 0.0363711 0.0363624 16711680
0.453476 0.036908 0.035717 16711680
0.452866 0.037403 0.0348524 16711680
0.452418 0.0379433 0.0342178 16711680
0.452614 0.0386617 0.0345056 16711680
0.45229 0.0392368 0.0340486 16711680
0.451854 0.0397817 0.0334324 16711680
0.452156 0.0405286 0.0338711 16711680
0.452259 0.0412207 0.0340251 16711680
0.452454 0.0419374 0.0343099 16711680
0.452857 0.0427099 0.0348922 16711680
0.452512 0.0432802 0.0344058 16711680
0.452227 0.0438671 0.0340054 16711680
0.451999 0.0444694 0.0336859 16711680
0.451944 0.0451182 0.0336132 16711680
0.451707 0.0457187 0.0332816 16711680
0.451061 0.0462105 0.0323641 16711680
0.450762 0.0467954 0.0319437 16711680
0.450738 0.0474532 0.031916 16711680
0.450725 0.0481138 0.0319037 16711680
0.451504 0.0489824 0.0330247 16711680
0.451642 0.0496817 0.0332278 16711680
0.45149 0.050305 0.033017 16711680
0.451641 0.0510074 0.0332394 16711680
0.451568 0.0516511 0.0331411 16711680
0.451475 0.05229 0.0330149 16711680
0.451194 0.0528803 0.03262 16711680
0.450931 0.0534756 0.0322508 16711680
0.450732 0.0540876 0.0319726 16711680
0.450481 0.0546864 0.0316198 16711680
0.45047 0.0553469 0.0316113 16711680
0.449735 0.0558234 0.0305674 16711680
0.453574 0.0234872 0.0345793 16711680
0.455046 0.024584 0.0366918 16711680
0.456898 0.0257895 0.0393488 16711680
0.456603 0.0263668 0.0389332 16711680
0.454217 0.0283332 0.0355476 16711680
0.45436 0.0290391 0.0357592 16711680
0.454058 0.0296173 0.0353336 16711680
0.453689 0.0301766 0.0348117 16711680
0.453667 0.0308355 0.0347884 16711680
0.453506 0.0314547 0.0345647 16711680
0.453506 0.0321194 0.0345705 16711680
0.453366 0.0327447 0.0343769 16711680
0.453321 0.0333968 0.0343193 16711680
0.453373 0.0340762 0.0344007 16711680
0.454074 0.0349371 0.0354106 16711680
0.454815 0.0358081 0.0364782 16711680
0.454775 0.0364601 0.0364271 16711680
0.454534 0.0370564 0.0360893 16711680
0.453945 0.0375566 0.0352535 16711680
0.453203 0.0380154 0.0341986 16711680
0.45326 0.0386953 0.0342873 16711680
0.453122 0.0393212 0.0340959 16711680
0.453 0.0399517 0.0339277 16711680
0.452783 0.0405565 0.0336241 16711680
0.452711 0.0412009 0.0335279 16711680
0.45291 0.0419189 0.0338196 16711680
0.453402 0.0427158 0.0345309 16711680
0.453467 0.0433963 0.0346293 16711680
0.453266 0.0440055 0.0343491 16711680
0.452756 0.0445318 0.0336262 16711680
0.452648 0.0451664 0.0334786 16711680
0.45258 0.0458116 0.0333878 16711680
0.452107 0.0463492 0.0327173 16711680
0.451889 0.0469551 0.032413 16711680
0.451997 0.0476473 0.0325739 16711680
0.452449 0.0484297 0.0332265 16711680
0.452154 0.0490154 0.0328118 16711680
0.451975 0.0496315 0.0325615 16711680
0.452027 0.0503083 0.0326424 16711680
0.452247 0.0510286 0.0329639 16711680
0.452026 0.0516341 0.032655 16711680
0.451792 0.0522364 0.0323265 16711680
0.451382 0.0527934 0.0317459 16711680
0.450916 0.053337 0.0310872 16711680
0.450801 0.0539709 0.0309291 16711680
0.450434 0.0545404 0.0304102 16711680
0.450574 0.0552397 0.0306174 16711680
0.454087 0.0234836 0.0341682 16711680
0.455286 0.0245009 0.0358925 16711680
0.45743 0.0257924 0.0389709 16711680
0.457326 0.0264253 0.0388281 16711680
0.456596 0.0268765 0.0377897 16711680
0.453183 0.0278842 0.0329227 16711680
0.454363 0.0288893 0.0346193 16711680
0.454306 0.0295381 0.0345446 16711680
0.454081 0.0301391 0.0342305 16711680
0.453658 0.0306836 0.0336313 16711680
0.45378 0.0313836 0.033813 16711680
0.453944 0.0320951 0.0340544 16711680
0.453941 0.0327592 0.034057 16711680
0.45402 0.0334461 0.0341765 16711680
0.453893 0.0340753 0.0340028 16711680
0.454324 0.0348604 0.0346255 16711680
0.454973 0.0357059 0.0355619 16711680
0.455329 0.0364688 0.0360799 16711680
0.455273 0.0371164 0.0360062 16711680
0.454811 0.0376513 0.0353503 16711680
0.45448 0.0382234 0.034884 16711680
0.454298 0.0388366 0.0346295 16711680
0.454381 0.039523 0.0347551 16711680
0.453879 0.0400489 0.0340431 16711680
0.453451 0.0405957 0.0334373 16711680
0.45334 0.0412295 0.0332854 16711680
0.45339 0.041907 0.0333644 16711680
0.453818 0.0426866 0.0339839 16711680
0.454401 0.0435071 0.0348246 16711680
0.45417 0.0441077 0.0345011 16711680
0.453518 0.0445957 0.0335748 16711680
0.453277 0.0451944 0.0332358 16711680
0.453213 0.0458407 0.0331516 16711680
0.453073 0.0464666 0.0329568 16711680
0.452957 0.047099 0.0327973 16711680
0.452987 0.0477704 0.0328479 16711680
0.453021 0.0484424 0.0329034 16711680
0.452572 0.0489875 0.0322675 16711680
0.452485 0.0496279 0.0321497 16711680
0.452458 0.050284 0.032117 16711680
0.452826 0.0510429 0.0326502 16711680
0.452324 0.0515752 0.0319381 16711680
0.451512 0.0520281 0.0307822 16711680
0.451334 0.0526457 0.0305338 16711680
0.451025 0.0532298 0.0300982 16711680
0.450717 0.0538145 0.0296637 16711680
0.450757 0.0544886 0.0297276 16711680
0.450523 0.0550929 0.0294002 16711680
0.450711 0.0558045 0.0296762 16711680
0.450005 0.0562892 0.0286716 16711680
0.454623 0.0234873 0.0337919 16711680
0.455621 0.0244459 0.0352297 16711680
0.457801 0.025748 0.038361 16711680
0.458105 0.0265003 0.0388049 16711680
0.457795 0.0270732 0.038367 16711680
0.454731 0.0334991 0.0340526 16711680
0.454613 0.0341302 0.0338898 16711680
0.454757 0.034835 0.0341029 16711680
0.454922 0.0355453 0.0343461 16711680
0.455392 0.0363404 0.0350269 16711680
0.455854 0.0371324 0.0356964 16711680
0.455687 0.0377492 0.0354642 16711680
0.455553 0.0383751 0.0352781 16711680
0.45493 0.0388666 0.0343928 16711680
0.454812 0.0394977 0.0342309 16711680
0.454816 0.0401621 0.0342429 16711680
0.454278 0.0406785 0.0334784 16711680
0.454134 0.0413029 0.0332789 16711680
0.453917 0.0419077 0.0329751 16711680
0.454238 0.0426584 0.0334419 16711680
0.454634 0.0434287 0.0340167 16711680
0.454913 0.044167 0.0344241 16711680
0.45443 0.0446997 0.0337378 16711680
0.454072 0.0452668 0.0332314 16711680
0.45384 0.0458681 0.0329061 16711680
0.453743 0.0465054 0.0327735 16711680
0.453627 0.0471378 0.0326142 16711680
0.45403 0.0479075 0.0331984 16711680
0.453659 0.0484723 0.0326734 16711680
0.453169 0.0490064 0.0319781 16711680
0.452915 0.0496029 0.0316205 16711680
0.453005 0.0502899 0.0317574 16711680
0.453288 0.0510268 0.0321696 16711680
0.452691 0.0515344 0.0313208 16711680
0.452013 0.0520219 0.0303555 16711680
0.451707 0.0526066 0.0299242 16711680
0.451332 0.0531736 0.0293925 16711680
0.451042 0.0537631 0.028984 16711680
0.451016 0.0544205 0.0289534 16711680
0.45084 0.0550396 0.0287083 16711680
0.451139 0.0557796 0.0291435 16711680
0.451306 0.0564857 0.0293899 16711680
0.455157 0.02349 0.0334115 16711680
0.455961 0.0243919 0.0345722 16711680
0.457881 0.0256188 0.0373343 16711680
0.458853 0.026566 0.0387359 16711680
0.458628 0.0271636 0.0384208 16711680
0.455603 0.0342613 0.0341651 16711680
0.45543 0.0348769 0.0339241 16711680
0.45523 0.0354852 0.0336449 16711680
0.455621 0.0362582 0.0342118 16711680
0.456116 0.0370599 0.0349301 16711680
0.456328 0.0377819 0.0352411 16711680
0.456289 0.0384341 0.0351924 16711680
0.455741 0.0389459 0.0344126 16711680
0.455407 0.0395174 0.033941 16711680
0.455494 0.0402046 0.0340729 16711680
0.455553 0.040884 0.0341642 16711680
0.455165 0.0414413 0.0336149 16711680
0.454641 0.0419622 0.0328698 16711680
0.454756 0.0426569 0.0330417 16711680
0.455007 0.043388 0.033408 16711680
0.455609 0.0442134 0.0342796 16711680
0.455718 0.044905 0.0344418 16711680
0.45502 0.0453805 0.0334482 16711680
0.454333 0.0458598 0.0324694 16711680
0.454133 0.0464698 0.0321896 16711680
0.454195 0.0471494 0.032285 16711680
0.455057 0.0480407 0.0335283 16711680
0.454611 0.0485853 0.0328952 16711680
0.453908 0.0490629 0.0318935 16711680
0.453674 0.0496646 0.0315653 16711680
0.453862 0.0503769 0.031842 16711680
0.454056 0.0510903 0.032127 16711680
0.453375 0.0515758 0.0311568 16711680
0.452705 0.0520652 0.0302024 16711680
0.452399 0.0526497 0.0297711 16711680
0.451948 0.053197 0.0291302 16711680
0.45165 0.0537844 0.0287101 16711680
0.451524 0.054416 0.0285355 16711680
0.451296 0.0550219 0.0282156 16711680
0.451943 0.0558504 0.02915 16711680
0.452836 0.0567403 0.0304375 16711680
0.455677 0.0234886 0.0330108 16711680
0.456248 0.0243223 0.0338379 16711680
0.457793 0.0254401 0.0360644 16711680
0.459241 0.0265271 0.0381525 16711680
0.459355 0.0272233 0.0383232 16711680
0.456146 0.034931 0.0338082 16711680
0.455781 0.0354927 0.0332905 16711680
0.455913 0.0361938 0.0334877 16711680
0.456104 0.0369109 0.0337691 16711680
0.456425 0.0376637 0.0342373 16711680
0.456921 0.0384642 0.034956 16711680
0.456738 0.0390766 0.0347006 16711680
0.456398 0.0396459 0.0342191 16711680
0.456122 0.0402333 0.0338304 16711680
0.456523 0.041006 0.0344127 16711680
0.455881 0.0414937 0.0334979 16711680
0.455453 0.0420405 0.032891 16711680
0.455433 0.0426985 0.0328695 16711680
0.45553 0.0433879 0.0330153 16711680
0.456036 0.0441874 0.0337486 16711680
0.456452 0.0449619 0.0343535 16711680
0.455989 0.0454998 0.0336946 16711680
0.455269 0.0459698 0.0326678 16711680
0.454681 0.0464761 0.0318313 16711680
0.454742 0.0471555 0.0319252 16711680
0.455812 0.0481021 0.0334692 16711680
0.455594 0.0487067 0.0331634 16711680
0.454967 0.0492037 0.0322695 16711680
0.454489 0.0497409 0.0315906 16711680
0.454734 0.0504677 0.0319483 16711680
0.454598 0.0510951 0.0317612 16711680
0.454093 0.0516261 0.0310419 16711680
0.453546 0.0521473 0.0302644 16711680
0.453146 0.0527069 0.0296962 16711680
0.452626 0.0532364 0.0289571 16711680
0.452301 0.0538166 0.0284971 16711680
0.452209 0.0544568 0.0283713 16711680
0.451958 0.0550567 0.0280188 16711680
0.453777 0.0561837 0.030637 16711680
0.456204 0.0234896 0.0326214 16711680
0.456703 0.0243022 0.0333459 16711680
0.458096 0.0253757 0.0353553 16711680
0.459422 0.0264274 0.0372697 16711680
0.460004 0.0272601 0.0381132 16711680
0.459711 0.0278378 0.0376993 16711680
0.457 0.0350236 0.0338893 16711680
0.456632 0.0355843 0.0333676 16711680
0.456447 0.0361965 0.0331085 16711680
0.456333 0.0368287 0.0329521 16711680
0.45667 0.0375863 0.0334443 16711680
0.457426 0.0384594 0.0345387 16711680
0.457785 0.0392212 0.0350612 16711680
0.457236 0.0397325 0.0342791 16711680
0.456662 0.0402377 0.0334609 16711680
0.456807 0.0409406 0.0336772 16711680
0.456555 0.0415346 0.0333213 16711680
0.456476 0.0421763 0.0332159 16711680
0.456163 0.0427544 0.0327733 16711680
0.455967 0.0433643 0.0324979 16711680
0.456372 0.0441369 0.0330881 16711680
0.457085 0.0449914 0.0341198 16711680
0.457063 0.0456474 0.0340943 16711680
0.456761 0.0462287 0.0336678 16711680
0.45601 0.0466906 0.0325952 16711680
0.45533 0.0471725 0.0316252 16711680
0.456429 0.0481268 0.0332116 16711680
0.456516 0.0488119 0.0333443 16711680
0.456076 0.049358 0.0327194 16711680
0.45549 0.0498662 0.0318838 16711680
0.455374 0.0504982 0.0317234 16711680
0.45534 0.051152 0.0316825 16711680
0.454984 0.0517215 0.031177 16711680
0.454535 0.0522676 0.0305384 16711680
0.453894 0.0527648 0.0296252 16711680
0.453459 0.0533159 0.0290071 16711680
0.453468 0.0539815 0.0290259 16711680
0.453484 0.0546491 0.029057 16711680
0.454547 0.0555839 0.0305909 16711680
0.454784 0.0563066 0.0309387 16711680
0.456838 0.0235219 0.0323853 16711680
0.456826 0.0241845 0.0323755 16711680
0.458342 0.0252947 0.0345647 16711680
0.459709 0.0263586 0.0365386 16711680
0.460629 0.0272902 0.0378699 16711680
0.460656 0.0279607 0.0379163 16711680
0.458193 0.0352118 0.0344599 16711680
0.457537 0.0356911 0.0335234 16711680
0.457059 0.0362213 0.0328439 16711680
0.456763 0.0368027 0.0324252 16711680
0.457027 0.0375401 0.0328126 16711680
0.457784 0.0384134 0.0339081 16711680
0.458606 0.0393035 0.0350981 16711680
0.458167 0.0398449 0.034474 16711680
0.457585 0.0403475 0.0336438 16711680
0.457387 0.0409561 0.0333661 16711680
0.457509 0.0416525 0.0335499 16711680
0.457328 0.0422657 0.033296 16711680
0.45691 0.042815 0.0327017 16711680
0.456578 0.0433879 0.0322311 16711680
0.456918 0.044143 0.0327281 16711680
0.457536 0.0449721 0.0336248 16711680
0.457865 0.0457224 0.0341046 16711680
0.457625 0.04632 0.0337666 16711680
0.457131 0.04685 0.0330627 16711680
0.45668 0.0473923 0.0324216 16711680
0.456793 0.0480845 0.0325907 16711680
0.457172 0.0488471 0.0331438 16711680
0.456932 0.0494455 0.0328048 16711680
0.456906 0.0501007 0.0327755 16711680
0.456577 0.0506762 0.0323091 16711680
0.45606 0.0512033 0.0315729 16711680
0.456314 0.0519315 0.0319446 16711680
0.455748 0.0524464 0.031137 16711680
0.455502 0.0530452 0.0307912 16711680
0.455574 0.0537261 0.0309014 16711680
0.455942 0.0544831 0.0314386 16711680
0.455707 0.0550846 0.0311069 16711680
0.455685 0.055741 0.0310829 16711680
0.45534 0.0563147 0.0305927 16711680
0.45473 0.0568218 0.0297227 16711680
0.453297 0.0571212 0.0276682 16711680
0.457249 0.0241547 0.0318358 16711680
0.458412 0.0251615 0.0335175 16711680
0.460102 0.0263207 0.0359594 16711680
0.461091 0.0272729 0.0373926 16711680
0.461419 0.0280308 0.0378716 16711680
0.461018 0.0285771 0.0373024 16711680
0.458957 0.0352796 0.0344154 16711680
0.458312 0.0357618 0.033494 16711680
0.457706 0.0362558 0.0326285 16711680
0.457365 0.0368245 0.0321448 16711680
0.457502 0.0375265 0.0323493 16711680
0.458119 0.0383613 0.0332454 16711680
0.45915 0.0393095 0.0347376 16711680
0.459094 0.0399562 0.0346639 16711680
0.458834 0.0405469 0.0342965 16711680
0.458145 0.0410205 0.0333127 16711680
0.457883 0.0416117 0.032943 16711680
0.457982 0.0423013 0.0330918 16711680
0.457552 0.0428472 0.0324805 16711680
0.457257 0.0434301 0.0320628 16711680
0.457343 0.0441163 0.0321938 16711680
0.457853 0.0449165 0.0329356 16711680
0.458461 0.045742 0.0338185 16711680
0.458337 0.0463706 0.0336475 16711680
0.458147 0.0469815 0.0333806 16711680
0.457895 0.0475764 0.033026 16711680
0.457432 0.0481152 0.0323654 16711680
0.457703 0.048849 0.0327628 16711680
0.457678 0.0495042 0.032734 16711680
0.457729 0.0501795 0.0328157 16711680
0.457412 0.0507579 0.0323657 16711680
0.4573 0.0513904 0.0322125 16711680
0.457168 0.0520175 0.0320284 16711680
0.457018 0.0526403 0.0318196 16711680
0.456939 0.0532816 0.0317135 16711680
0.456708 0.0538837 0.0313884 16711680
0.456651 0.0545307 0.0313132 16711680
0.456305 0.0551037 0.0308223 16711680
0.456049 0.0557001 0.0304611 16711680
0.455721 0.0562783 0.0299956 16711680
0.455052 0.0567703 0.0290389 16711680
0.453779 0.0571101 0.0272133 16711680
0.457848 0.0241766 0.0315487 16711680
0.458547 0.0250478 0.0325651 16711680
0.460284 0.0262213 0.0350771 16711680
0.461481 0.0272343 0.0368099 16711680
0.462015 0.0280525 0.0375872 16711680
0.461735 0.0286338 0.0371921 16711680
0.459487 0.0352817 0.0340338 16711680
0.45894 0.0357911 0.0332519 16711680
0.458304 0.0362765 0.0323428 16711680
0.457962 0.0368451 0.0318582 16711680
0.458023 0.0375259 0.0319536 16711680
0.458265 0.0382566 0.0323091 16711680
0.45934 0.0392175 0.0338662 16711680
0.459863 0.0400242 0.0346272 16711680
0.459748 0.0406547 0.0344695 16711680
0.459064 0.0411289 0.0334903 16711680
0.458455 0.0416249 0.0326202 16711680
0.458415 0.0422768 0.0325705 16711680
0.458185 0.0428769 0.0322456 16711680
0.458046 0.0435021 0.0320535 16711680
0.457905 0.0441269 0.031858 16711680
0.458127 0.0448493 0.0321844 16711680
0.458624 0.0456455 0.032909 16711680
0.458822 0.0463605 0.0332016 16711680
0.45893 0.0470512 0.0333649 16711680
0.458701 0.0476517 0.033042 16711680
0.458354 0.0482213 0.0325494 16711680
0.458243 0.0488536 0.0323963 16711680
0.458087 0.0494742 0.0321785 16711680
0.458238 0.0501757 0.0324031 16711680
0.458025 0.0507814 0.0321034 16711680
0.457954 0.0514245 0.0320083 16711680
0.457773 0.0520388 0.0317546 16711680
0.457662 0.0526716 0.0316019 16711680
0.457464 0.0532821 0.0313245 16711680
0.457156 0.0538642 0.0308883 16711680
0.457027 0.0544926 0.0307083 16711680
0.456699 0.0550702 0.0302428 16711680
0.456343 0.0556411 0.0297374 16711680
0.456052 0.0562291 0.0293261 16711680
0.455413 0.0567287 0.0284117 16711680
0.458812 0.0243061 0.0317898 16711680
0.458845 0.0249815 0.0318456 16711680
0.460152 0.0260296 0.0337391 16711680
0.461757 0.0271627 0.0360636 16711680
0.462435 0.0280231 0.0370498 16711680
0.462407 0.0286773 0.0370165 16711680
0.462069 0.0292416 0.0365361 16711680
0.460244 0.0346847 0.0339715 16711680
0.459968 0.0352698 0.0335805 16711680
0.4595 0.0358016 0.0329137 16711680
0.458895 0.0362956 0.0320482 16711680
0.458704 0.0369058 0.0317792 16711680
0.458606 0.0375425 0.0316468 16711680
0.458618 0.0382094 0.0316713 16711680
0.459191 0.0390317 0.0325056 16711680
0.46036 0.0400173 0.0341995 16711680
0.460416 0.0406946 0.0342875 16711680
0.459973 0.041235 0.0336564 16711680
0.459441 0.0417517 0.0328969 16711680
0.458994 0.0422921 0.0322592 16711680
0.45891 0.0429319 0.0321453 16711680
0.458928 0.0435995 0.0321791 16711680
0.458492 0.0441438 0.0315561 16711680
0.458454 0.0447965 0.03151 16711680
0.458708 0.0455274 0.0318832 16711680
0.45922 0.0463271 0.0326304 16711680
0.459455 0.0470517 0.0329764 16711680
0.459355 0.0476866 0.0328398 16711680
0.459288 0.0483303 0.0327498 16711680
0.459006 0.048917 0.0323501 16711680
0.458664 0.0494884 0.0318648 16711680
0.458709 0.0501619 0.0319363 16711680
0.458596 0.0507941 0.0317819 16711680
0.458548 0.0514431 0.0317197 16711680
0.458301 0.0520403 0.0313711 16711680
0.45812 0.0526548 0.0311173 16711680
0.457937 0.053269 0.0308603 16711680
0.457475 0.0538112 0.0302007 16711680
0.457316 0.0544324 0.0299795 16711680
0.457078 0.0550331 0.0296431 16711680
0.456646 0.0555845 0.0290266 16711680
0.456464 0.0562003 0.0287713 16711680
0.456009 0.0567469 0.0281229 16711680
0.455466 0.0572718 0.027347 16711680
0.454484 0.0576862 0.0259373 16711680
0.459845 0.0244559 0.0321314 16711680
0.459185 0.0249275 0.0311861 16711680
0.459966 0.0258219 0.0323219 16711680
0.461538 0.0269462 0.0346007 16711680
0.462762 0.0279664 0.0363767 16711680
0.462988 0.0286946 0.0367111 16711680
0.462876 0.0293244 0.036557 16711680
0.461037 0.0340983 0.0339628 16711680
0.460637 0.0346479 0.0333918 16711680
0.460431 0.0352531 0.0331026 16711680
0.459922 0.035773 0.0323743 16711680
0.459409 0.0362928 0.0316412 16711680
0.45935 0.0369401 0.0315644 16711680
0.459151 0.0375484 0.0312848 16711680
0.459029 0.0381782 0.0311161 16711680
0.459294 0.0389152 0.0315058 16711680
