# .PCD v0.7 - Point Cloud Data file format
VERSION 0.7
FIELDS x y z rgb
SIZE 4 4 4 4
TYPE F F F F
COUNT 1 1 1 1
WIDTH 1261
HEIGHT 1
VIEWPOINT 0 0 0 1 0 0 0
POINTS 1261
DATA ascii
0.293219 -0.0905776 0.0415778 16711680
0.293502 -0.0897533 0.0419061 16711680
0.294525 -0.088664 0.0431178 16711680
0.298314 -0.0865854 0.0476329 16711680
0.297321 -0.0862221 0.0464368 16711680
0.296377 -0.0858397 0.0452998 16711680
0.295713 -0.0853569 0.0444959 16711680
0.266632 -0.160885 0.00954401 16711680
0.266322 -0.160263 0.00916314 16711680
0.265892 -0.159691 0.00863802 16711680
0.265551 -0.15908 0.00822008 16711680
0.265579 -0.158316 0.00824261 16711680
0.265625 -0.157545 0.00828671 16711680
0.266128 -0.156583 0.00887799 16711680
0.266468 -0.15569 0.00927329 16711680
0.274844 -0.150729 0.0192593 16711680
0.274295 -0.15021 0.0185932 16711680
0.273684 -0.149716 0.0178528 16711680
0.273007 -0.149249 0.0170327 16711680
0.272886 -0.148552 0.0168778 16711680
0.272699 -0.147882 0.016644 16711680
0.275115 -0.14615 0.0195194 16711680
0.276368 -0.144894 0.0210062 16711680
0.275988 -0.144306 0.0205418 16711680
0.2892 -0.136727 0.0362983 16711680
0.290877 -0.135316 0.0382913 16711680
0.292435 -0.133955 0.0401431 16711680
0.29232 -0.133271 0.0399947 16711680
0.292449 -0.132489 0.0401387 16711680
0.292428 -0.131767 0.0401031 16711680
0.292266 -0.131101 0.0398997 16711680
0.291816 -0.130551 0.0393511 16711680
0.29184 -0.129811 0.0393697 16711680
0.291652 -0.129156 0.0391355 16711680
0.291631 -0.128434 0.0390998 16711680
0.291283 -0.127842 0.0386736 16711680
0.291699 -0.126947 0.0391605 16711680
0.292319 -0.125972 0.0398905 16711680
0.292251 -0.125269 0.0397996 16711680
0.292003 -0.124638 0.0394921 16711680
0.291344 -0.124168 0.038695 16711680
0.290529 -0.123758 0.0377105 16711680
0.28985 -0.123294 0.036889 16711680
0.289542 -0.122684 0.0365096 16711680
0.288882 -0.122211 0.0357109 16711680
0.288143 -0.121768 0.0348173 16711680
0.287271 -0.121376 0.033765 16711680
0.286408 -0.120979 0.0327232 16711680
0.2883 -0.119514 0.0349745 16711680
0.284723 -0.1187 0.0306684 16711680
0.28348 -0.118445 0.0291721 16711680
0.282855 -0.117951 0.0284148 16711680
0.282416 -0.117385 0.02788 16711680
0.281845 -0.116869 0.0271864 16711680
0.281865 -0.116126 0.0272011 16711680
0.281771 -0.115428 0.0270783 16711680
0.282478 -0.114424 0.0279126 16711680
0.283277 -0.113387 0.0288574 16711680
0.283925 -0.112409 0.0296221 16711680
0.28417 -0.111584 0.0299042 16711680
0.284538 -0.110713 0.0303336 16711680
0.284669 -0.109931 0.0304805 16711680
0.284852 -0.109131 0.030689 16711680
0.285176 -0.108278 0.0310661 16711680
0.285502 -0.107425 0.0314454 16711680
0.289366 -0.10525 0.0360543 16711680
0.290784 -0.103994 0.0377388 16711680
0.289562 -0.103722 0.0362678 16711680
0.289291 -0.103096 0.0359329 16711680
0.289222 -0.102394 0.0358412 16711680
0.289024 -0.10174 0.0355942 16711680
0.289161 -0.100962 0.0357476 16711680
0.289 -0.100294 0.0355444 16711680
0.29002 -0.0991912 0.0367544 16711680
0.291534 -0.097909 0.0385543 16711680
0.293013 -0.0966421 0.0403119 16711680
0.293547 -0.0957229 0.0409402 16711680
0.293898 -0.0948714 0.0413496 16711680
0.295022 -0.093739 0.042683 16711680
0.296481 -0.0924864 0.0444176 16711680
0.29588 -0.0919838 0.0436883 16711680
0.29512 -0.0915374 0.0427705 16711680
0.294384 -0.091082 0.0418797 16711680
0.293881 -0.0905412 0.0412685 16711680
0.294278 -0.0896759 0.0417334 16711680
0.299126 -0.0872128 0.047519 16711680
0.299014 -0.0865344 0.0473756 16711680
0.297884 -0.0862205 0.046014 16711680
0.297019 -0.0858104 0.0449699 16711680
0.296587 -0.0852448 0.0444435 16711680
0.267858 -0.161365 0.00988233 16711680
0.267191 -0.160893 0.00907445 16711680
0.266901 -0.160263 0.00871718 16711680
0.266552 -0.159657 0.0082885 16711680
0.266408 -0.158964 0.00810611 16711680
0.266565 -0.158146 0.00828266 16711680
0.26709 -0.157176 0.00890017 16711680
0.267347 -0.156317 0.00919688 16711680
0.275061 -0.150876 0.0183901 16711680
0.274573 -0.150332 0.0177968 16711680
0.274132 -0.149768 0.0172591 16711680
0.273576 -0.149251 0.0165828 16711680
0.27356 -0.148511 0.016554 16711680
0.275185 -0.1471 0.0184864 16711680
0.277062 -0.145588 0.0207204 16711680
0.276972 -0.144881 0.0206029 16711680
0.276445 -0.144353 0.019962 16711680
0.274852 -0.144258 0.018046 16711680
0.28975 -0.136733 0.0358444 16711680
0.289935 -0.135925 0.036055 16711680
0.291642 -0.134503 0.0380865 16711680
0.292297 -0.133507 0.0388602 16711680
0.29196 -0.132912 0.0384469 16711680
0.292587 -0.131929 0.0391858 16711680
0.292734 -0.13114 0.0393513 16711680
0.292301 -0.130583 0.0388237 16711680
0.292122 -0.129923 0.0385997 16711680
0.292153 -0.129181 0.0386267 16711680
0.292557 -0.12829 0.0390993 16711680
0.292398 -0.127623 0.0388983 16711680
0.292833 -0.126721 0.0394087 16711680
0.292931 -0.125952 0.0395162 16711680
0.292658 -0.125331 0.0391792 16711680
0.292022 -0.124852 0.0384086 16711680
0.291803 -0.124209 0.0381359 16711680
0.291121 -0.123747 0.0373105 16711680
0.290461 -0.123276 0.0365101 16711680
0.290207 -0.122645 0.0361966 16711680
0.289479 -0.122199 0.0353152 16711680
0.289015 -0.121649 0.0347494 16711680
0.288399 -0.121157 0.0340028 16711680
0.287418 -0.120807 0.0328188 16711680
0.287588 -0.120009 0.0330118 16711680
0.28843 -0.118951 0.0340095 16711680
0.287253 -0.118675 0.0325904 16711680
0.285689 -0.118546 0.030709 16711680
0.284583 -0.118239 0.0293763 16711680
0.283921 -0.11776 0.0285734 16711680
0.283429 -0.117214 0.0279746 16711680
0.282892 -0.116686 0.0273226 16711680
0.283063 -0.115886 0.0275166 16711680
0.283578 -0.114956 0.0281224 16711680
0.28398 -0.114069 0.0285934 16711680
0.28455 -0.11312 0.0292648 16711680
0.285153 -0.112158 0.0299767 16711680
0.285551 -0.111276 0.0304422 16711680
0.285485 -0.110569 0.0303526 16711680
0.286004 -0.109642 0.0309641 16711680
0.286333 -0.108787 0.0313472 16711680
0.28615 -0.108125 0.0311182 16711680
0.287598 -0.106852 0.0328406 16711680
0.291892 -0.104517 0.0379678 16711680
0.291838 -0.103811 0.0378935 16711680
0.291495 -0.103212 0.0374734 16711680
0.292124 -0.102252 0.0382154 16711680
0.292807 -0.101273 0.0390233 16711680
0.293404 -0.100327 0.0397273 16711680
0.29349 -0.0995702 0.0398202 16711680
0.293908 -0.0986919 0.0403094 16711680
0.294516 -0.0977438 0.0410277 16711680
0.294602 -0.096989 0.0411198 16711680
0.294594 -0.0962686 0.0411003 16711680
0.294835 -0.095457 0.0413793 16711680
0.29496 -0.0946886 0.0415184 16711680
0.296985 -0.0932279 0.0439317 16711680
0.297115 -0.0924595 0.044077 16711680
0.296459 -0.0919768 0.0432819 16711680
0.295736 -0.0915174 0.0424074 16711680
0.295052 -0.0910432 0.0415782 16711680
0.294564 -0.0904973 0.0409844 16711680
0.297812 -0.0886055 0.0448607 16711680
0.300244 -0.0870114 0.0477619 16711680
0.299543 -0.086545 0.0469128 16711680
0.298478 -0.0862078 0.0456288 16711680
0.297756 -0.0857468 0.0447547 16711680
0.297278 -0.085198 0.044172 16711680
0.268375 -0.161391 0.00936234 16711680
0.267771 -0.160893 0.00862968 16711680
0.267677 -0.16018 0.00850654 16711680
0.267381 -0.159552 0.00814164 16711680
0.26769 -0.158671 0.0085001 16711680
0.267749 -0.157894 0.00856102 16711680
0.268166 -0.156969 0.00904942 16711680
0.276354 -0.151323 0.0188195 16711680
0.27548 -0.15094 0.0177633 16711680
0.275187 -0.150315 0.0174017 16711680
0.274778 -0.149739 0.016901 16711680
0.274223 -0.149221 0.0162269 16711680
0.275276 -0.148043 0.0174767 16711680
0.277846 -0.146244 0.0205431 16711680
0.27763 -0.145589 0.0202746 16711680
0.277554 -0.144878 0.0201724 16711680
0.276978 -0.144369 0.0194736 16711680
0.275001 -0.14443 0.0170964 16711680
0.2915 -0.136985 0.0368367 16711680
0.290582 -0.136625 0.0357277 16711680
0.29059 -0.135888 0.0357275 16711680
0.291178 -0.134918 0.0364214 16711680
0.292193 -0.133776 0.0376266 16711680
0.292063 -0.133097 0.0374607 16711680
0.292534 -0.132177 0.0380139 16711680
0.292948 -0.131279 0.0385001 16711680
0.292908 -0.130565 0.0384415 16711680
0.292753 -0.129897 0.0382453 16711680
0.292829 -0.129136 0.038327 16711680
0.29346 -0.128154 0.0390719 16711680
0.293603 -0.127368 0.0392325 16711680
0.293461 -0.126695 0.0390533 16711680
0.293378 -0.125998 0.0389433 16711680
0.293004 -0.125417 0.038486 16711680
0.292341 -0.124949 0.0376816 16711680
0.29216 -0.124291 0.0374541 16711680
0.291597 -0.123782 0.0367707 16711680
0.291138 -0.123232 0.0362104 16711680
0.290891 -0.122598 0.0359052 16711680
0.290126 -0.122167 0.0349786 16711680
0.289575 -0.121651 0.0343091 16711680
0.289446 -0.12097 0.034145 16711680
0.288681 -0.120536 0.0332186 16711680
0.28822 -0.119983 0.032656 16711680
0.288963 -0.118964 0.0335352 16711680
0.288294 -0.118491 0.032724 16711680
0.287205 -0.11818 0.0314099 16711680
0.285817 -0.117982 0.0297378 16711680
0.285085 -0.11753 0.0288519 16711680
0.284371 -0.117071 0.027986 16711680
0.284201 -0.116402 0.0277728 16711680
0.284182 -0.115676 0.0277395 16711680
0.284886 -0.114673 0.028573 16711680
0.285592 -0.113672 0.0294076 16711680
0.286237 -0.112694 0.0301707 16711680
0.28634 -0.111923 0.0302837 16711680
0.28716 -0.110882 0.031255 16711680
0.287703 -0.109946 0.031895 16711680
0.288601 -0.108876 0.0329611 16711680
0.289203 -0.10792 0.0336717 16711680
0.291141 -0.106464 0.0359823 16711680
0.293001 -0.105039 0.0382003 16711680
0.293645 -0.104072 0.0389611 16711680
0.293569 -0.103375 0.03886 16711680
0.293561 -0.102652 0.0388403 16711680
0.2939 -0.101801 0.0392367 16711680
0.293941 -0.101061 0.0392761 16711680
0.294318 -0.100196 0.0397171 16711680
0.294613 -0.0993628 0.040061 16711680
0.29456 -0.0986586 0.0399867 16711680
0.295047 -0.0977551 0.0405605 16711680
0.294985 -0.0970544 0.0404762 16711680
0.295027 -0.0963156 0.0405164 16711680
0.294998 -0.0956029 0.0404719 16711680
0.296305 -0.094402 0.0420277 16711680
0.298161 -0.0930032 0.0442404 16711680
0.297734 -0.092438 0.0437191 16711680
0.297045 -0.0919675 0.0428835 16711680
0.29665 -0.0913894 0.0424007 16711680
0.295958 -0.0909181 0.0415628 16711680
0.29622 -0.0901018 0.0418664 16711680
0.301088 -0.0876262 0.0476875 16711680
0.300827 -0.0870024 0.0473646 16711680
0.300052 -0.0865628 0.0464262 16711680
0.299169 -0.0861605 0.0453593 16711680
0.29851 -0.0856774 0.0445592 16711680
0.298035 -0.0851274 0.043981 16711680
0.269527 -0.161901 0.00961471 16711680
0.268974 -0.161382 0.00894141 16711680
0.268412 -0.160867 0.00825727 16711680
0.268547 -0.160058 0.00840878 16711680
0.268449 -0.159347 0.00828052 16711680
0.268813 -0.158443 0.00870728 16711680
0.269274 -0.157499 0.00924909 16711680
0.277387 -0.151878 0.0189383 16711680
0.276668 -0.151431 0.0180666 16711680
0.276001 -0.150962 0.0172564 16711680
0.275765 -0.150314 0.0169634 16711680
0.275456 -0.149696 0.0165828 16711680
0.276006 -0.148723 0.0172322 16711680
0.278506 -0.146952 0.0202168 16711680
0.278541 -0.146194 0.0202487 16711680
0.278182 -0.145598 0.0198088 16711680
0.27809 -0.144892 0.0196879 16711680
0.277493 -0.144393 0.0189617 16711680
0.27551 -0.144457 0.0165757 16711680
0.292459 -0.136825 0.0368743 16711680
0.291979 -0.136287 0.0362899 16711680
0.291601 -0.135708 0.035827 16711680
0.29189 -0.134859 0.0361623 16711680
0.292346 -0.133942 0.0366993 16711680
0.292529 -0.133137 0.036908 16711680
0.292579 -0.132385 0.0369585 16711680
0.29311 -0.131441 0.0375843 16711680
0.293484 -0.13056 0.0380219 16711680
0.293716 -0.129737 0.0382899 16711680
0.293974 -0.128904 0.038589 16711680
0.294188 -0.128089 0.0388365 16711680
0.294221 -0.127346 0.0388659 16711680
0.293962 -0.126719 0.0385454 16711680
0.2937 -0.126094 0.0382212 16711680
0.293418 -0.125476 0.0378731 16711680
0.292888 -0.124955 0.0372282 16711680
0.292643 -0.124322 0.0369236 16711680
0.292189 -0.123771 0.0363706 16711680
0.291608 -0.123269 0.0356634 16711680
0.291545 -0.122563 0.035578 16711680
0.290802 -0.122123 0.0346783 16711680
0.290366 -0.121563 0.0341448 16711680
0.290098 -0.120936 0.0338143 16711680
0.289478 -0.120446 0.0330609 16711680
0.289335 -0.11977 0.0328786 16711680
0.289358 -0.11903 0.0328964 16711680
0.289282 -0.118328 0.032796 16711680
0.288316 -0.11797 0.0316284 16711680
0.286992 -0.117748 0.0300308 16711680
0.286299 -0.117282 0.0291905 16711680
0.286071 -0.116637 0.0289066 16711680
0.286009 -0.115927 0.0288228 16711680
0.28666 -0.114946 0.0295926 16711680
0.287638 -0.11384 0.0307554 16711680
0.289007 -0.112587 0.0323856 16711680
0.290435 -0.111314 0.0340878 16711680
0.29134 -0.110241 0.0351629 16711680
0.291859 -0.109316 0.0357751 16711680
0.291932 -0.108561 0.0358515 16711680
0.292248 -0.107714 0.0362206 16711680
0.293073 -0.106676 0.0371995 16711680
0.294376 -0.10546 0.0387517 16711680
0.294524 -0.104679 0.0389196 16711680
0.294186 -0.10408 0.0385044 16711680
0.294069 -0.103398 0.0383546 16711680
0.294072 -0.102671 0.0383478 16711680
0.294179 -0.101906 0.0384659 16711680
0.294063 -0.101224 0.0383176 16711680
0.294463 -0.100351 0.0387863 16711680
0.294531 -0.0996009 0.0388585 16711680
0.294783 -0.0987834 0.0391507 16711680
0.295109 -0.0979391 0.0395314 16711680
0.294973 -0.0972652 0.0393587 16711680
0.295253 -0.0964387 0.0396839 16711680
0.295538 -0.0956106 0.0400163 16711680
0.29866 -0.0937461 0.0437489 16711680
0.299001 -0.0929007 0.0441486 16711680
0.298298 -0.0924363 0.0432955 16711680
0.297643 -0.0919534 0.042501 16711680
0.29743 -0.0913097 0.0422351 16711680
0.296991 -0.0907473 0.0416989 16711680
0.301243 -0.0884898 0.046787 16711680
0.301848 -0.0875535 0.0475022 16711680
0.301283 -0.0870391 0.046815 16711680
0.300589 -0.0865701 0.045974 16711680
0.299774 -0.086144 0.0449867 16711680
0.299139 -0.0856521 0.0442159 16711680
0.298653 -0.0851064 0.0436233 16711680
0.270215 -0.161855 0.00930023 16711680
0.269831 -0.161265 0.00882924 16711680
0.269382 -0.160702 0.00828111 16711680
0.269532 -0.159887 0.00844955 16711680
0.269802 -0.159022 0.00876307 16711680
0.26994 -0.158213 0.00891912 16711680
0.270265 -0.157326 0.00929785 16711680
0.278527 -0.152387 0.019186 16711680
0.277869 -0.151916 0.018386 16711680
0.277283 -0.151414 0.017674 16711680
0.276564 -0.150966 0.0168005 16711680
0.276371 -0.150301 0.0165591 16711680
0.276329 -0.149572 0.0164989 16711680
0.279311 -0.147599 0.0200654 16711680
0.279557 -0.146755 0.02035 16711680
0.279148 -0.14618 0.0198495 16711680
0.278909 -0.145535 0.019552 16711680
0.278694 -0.144879 0.0192846 16711680
0.278062 -0.144394 0.0185163 16711680
0.276415 -0.144322 0.0165305 16711680
0.294024 -0.136418 0.0376406 16711680
0.293289 -0.135985 0.0367481 16711680
0.293061 -0.135345 0.0364652 16711680
0.293149 -0.134578 0.0365599 16711680
0.293422 -0.133736 0.0368778 16711680
0.293365 -0.133027 0.0367994 16711680
0.293931 -0.132068 0.0374683 16711680
0.294193 -0.131232 0.0377727 16711680
0.294453 -0.130398 0.0380741 16711680
0.294806 -0.129526 0.0384881 16711680
0.294913 -0.128754 0.0386068 16711680
0.294772 -0.12808 0.0384278 16711680
0.294649 -0.1274 0.0382693 16711680
0.294423 -0.12676 0.0379891 16711680
0.294121 -0.12615 0.037617 16711680
0.293956 -0.125486 0.0374092 16711680
0.293489 -0.124941 0.0368388 16711680
0.293348 -0.124266 0.0366602 16711680
0.292786 -0.123758 0.0359758 16711680
0.292278 -0.123227 0.0353568 16711680
0.292147 -0.122548 0.0351888 16711680
0.291421 -0.122102 0.0343089 16711680
0.29104 -0.12152 0.0338409 16711680
0.290747 -0.120903 0.0334795 16711680
0.290178 -0.120394 0.0327876 16711680
0.290249 -0.119635 0.0328624 16711680
0.290209 -0.118919 0.0328045 16711680
0.290369 -0.118126 0.0329874 16711680
0.290072 -0.11751 0.0326201 16711680
0.289835 -0.116871 0.0323257 16711680
0.289598 -0.116231 0.0320327 16711680
0.290233 -0.115256 0.0327841 16711680
0.291056 -0.11421 0.033761 16711680
0.29163 -0.113261 0.0344403 16711680
0.291896 -0.112431 0.034749 16711680
0.292147 -0.111606 0.03504 16711680
0.29239 -0.110785 0.0353225 16711680
0.292527 -0.110005 0.0354768 16711680
0.292766 -0.109187 0.0357533 16711680
0.292748 -0.108466 0.0357221 16711680
0.292884 -0.107687 0.0358752 16711680
0.293571 -0.1067 0.0366901 16711680
0.295115 -0.105393 0.0385324 16711680
0.295195 -0.104638 0.0386182 16711680
0.294742 -0.104082 0.0380647 16711680
0.294288 -0.103526 0.037511 16711680
0.294482 -0.102728 0.0377332 16711680
0.294204 -0.102106 0.0373905 16711680
0.294292 -0.101348 0.0374857 16711680
0.294408 -0.10058 0.0376155 16711680
0.294552 -0.0998011 0.0377786 16711680
0.294866 -0.0989602 0.0381458 16711680
0.294797 -0.0982613 0.0380522 16711680
0.295064 -0.0974384 0.0383632 16711680
0.295176 -0.0966732 0.0384877 16711680
0.298245 -0.0948241 0.0421609 16711680
0.30057 -0.093252 0.0449409 16711680
0.299681 -0.0928568 0.043864 16711680
0.29895 -0.0924028 0.0429771 16711680
0.298846 -0.0917199 0.0428424 16711680
0.298227 -0.0912235 0.0420909 16711680
0.299009 -0.0902194 0.0430188 16711680
0.302988 -0.0880608 0.0477837 16711680
0.302367 -0.0875674 0.0470289 16711680
0.30192 -0.0870105 0.0464832 16711680
0.301207 -0.0865489 0.0456175 16711680
0.300404 -0.0861185 0.0446442 16711680
0.299807 -0.0856133 0.043918 16711680
0.299369 -0.0850506 0.043383 16711680
0.271055 -0.161744 0.00916898 16711680
0.270734 -0.161128 0.00877345 16711680
0.270753 -0.160368 0.00878596 16711680
0.270648 -0.159661 0.00864923 16711680
0.271209 -0.158675 0.00931263 16711680
0.271621 -0.157752 0.0097965 16711680
0.279836 -0.152824 0.0196373 16711680
0.27869 -0.152558 0.0182514 16711680
0.278283 -0.151982 0.0177532 16711680
0.277812 -0.151432 0.0171782 16711680
0.277135 -0.150967 0.0163553 16711680
0.27715 -0.150216 0.0163625 16711680
0.279595 -0.148462 0.0192871 16711680
0.280354 -0.147405 0.0201882 16711680
0.28025 -0.146705 0.0200537 16711680
0.279796 -0.146149 0.0194988 16711680
0.279517 -0.14552 0.0191537 16711680
0.279296 -0.144868 0.0188779 16711680
0.278657 -0.144385 0.0181013 16711680
0.277606 -0.14407 0.0168291 16711680
0.294604 -0.13568 0.0372154 16711680
0.294605 -0.134948 0.037207 16711680
0.294332 -0.134327 0.0368693 16711680
0.294634 -0.133474 0.0372216 16711680
0.294854 -0.132654 0.0374753 16711680
0.294887 -0.13191 0.0375055 16711680
0.295268 -0.131027 0.0379531 16711680
0.295398 -0.130245 0.0380995 16711680
0.295417 -0.129507 0.0381116 16711680
0.295464 -0.128759 0.0381582 16711680
0.295237 -0.12812 0.0378762 16711680
0.29506 -0.127461 0.0376533 16711680
0.294917 -0.126788 0.0374726 16711680
0.294525 -0.126214 0.0369916 16711680
0.294456 -0.125511 0.0368989 16711680
0.294063 -0.124937 0.0364177 16711680
0.293934 -0.124258 0.036252 16711680
0.293439 -0.123723 0.0356485 16711680
0.293035 -0.123152 0.0351532 16711680
0.29268 -0.12256 0.0347176 16711680
0.292028 -0.122085 0.0339245 16711680
0.291704 -0.121481 0.0335259 16711680
0.291416 -0.120863 0.0331706 16711680
0.291059 -0.120271 0.0327314 16711680
0.291159 -0.119501 0.0328417 16711680
0.291207 -0.118751 0.0328896 16711680
0.291165 -0.118037 0.032829 16711680
0.291262 -0.117269 0.0329356 16711680
0.291177 -0.116571 0.0328248 16711680
0.291599 -0.115678 0.0333211 16711680
0.29187 -0.114844 0.0336365 16711680
0.291977 -0.114074 0.0337555 16711680
0.292408 -0.113179 0.0342628 16711680
0.292415 -0.112448 0.0342621 16711680
0.292504 -0.111685 0.0343585 16711680
0.292751 -0.110862 0.0346452 16711680
0.292728 -0.110143 0.0346079 16711680
0.293039 -0.109297 0.0349716 16711680
0.292944 -0.108605 0.0348481 16711680
0.293104 -0.107816 0.0350308 16711680
0.294188 -0.10668 0.0363221 16711680
0.295953 -0.105289 0.0384325 16711680
0.295762 -0.104636 0.0381936 16711680
0.295263 -0.104097 0.0375845 16711680
0.294754 -0.103563 0.0369626 16711680
0.294876 -0.102791 0.0370998 16711680
0.294516 -0.1022 0.0366582 16711680
0.294633 -0.10143 0.0367885 16711680
0.294425 -0.100782 0.0365295 16711680
0.294716 -0.0999486 0.0368692 16711680
0.294938 -0.0991413 0.0371262 16711680
0.294957 -0.0984093 0.0371393 16711680
0.295171 -0.097606 0.0373858 16711680
0.296327 -0.0964565 0.0387651 16711680
0.301353 -0.0938898 0.0447915 16711680
0.301172 -0.0932361 0.0445648 16711680
0.300257 -0.0928508 0.0434554 16711680
0.299724 -0.0923247 0.0428056 16711680
0.299643 -0.0916332 0.0426997 16711680
0.299433 -0.090989 0.0424376 16711680
0.30378 -0.0886933 0.0476485 16711680
0.303562 -0.0880548 0.0473769 16711680
0.302834 -0.0875999 0.0464938 16711680
0.3025 -0.0870027 0.0460821 16711680
0.30179 -0.08654 0.0452198 16711680
0.301112 -0.0860648 0.0443963 16711680
0.300495 -0.0855671 0.0436453 16711680
0.271674 -0.160975 0.00876212 16711680
0.271856 -0.160147 0.00897121 16711680
0.271957 -0.159354 0.00908232 16711680
0.272121 -0.158534 0.00926948 16711680
0.280022 -0.152986 0.0187308 16711680
0.279193 -0.152587 0.0177255 16711680
0.278864 -0.151979 0.0173196 16711680
0.278464 -0.1514 0.0168295 16711680
0.277827 -0.150919 0.0160542 16711680
0.278929 -0.149717 0.017368 16711680
0.281509 -0.147908 0.0204577 16711680
0.28106 -0.14735 0.019908 16711680
0.280698 -0.146756 0.019464 16711680
0.280422 -0.146127 0.019122 16711680
0.280138 -0.1455 0.0187708 16711680
0.279746 -0.144918 0.0182902 16711680
0.279221 -0.144389 0.0176494 16711680
0.278885 -0.143783 0.017235 16711680
0.29557 -0.134785 0.0372542 16711680
0.295579 -0.134051 0.0372553 16711680
0.295531 -0.133339 0.0371878 16711680
0.295845 -0.132482 0.0375558 16711680
0.295861 -0.131745 0.0375652 16711680
0.295938 -0.130984 0.0376475 16711680
0.295838 -0.130294 0.0375174 16711680
0.295883 -0.129546 0.0375624 16711680
0.295861 -0.128825 0.0375255 16711680
0.295706 -0.128157 0.0373302 16711680
0.295649 -0.12745 0.037251 16711680
0.295406 -0.126817 0.0369496 16711680
0.294997 -0.12625 0.0364486 16711680
0.294927 -0.125548 0.0363545 16711680
0.294534 -0.124973 0.035872 16711680
0.294447 -0.124278 0.0357577 16711680
0.293961 -0.123739 0.0351641 16711680
0.293467 -0.123203 0.0345607 16711680
0.293257 -0.122555 0.0342994 16711680
0.292522 -0.122113 0.0334053 16711680
0.29228 -0.121477 0.0331049 16711680
0.291909 -0.120891 0.0326494 16711680
0.29174 -0.120226 0.0324365 16711680
0.291757 -0.119488 0.0324471 16711680
0.291835 -0.118727 0.032531 16711680
0.291672 -0.118059 0.0323256 16711680
0.291699 -0.117318 0.0323484 16711680
0.291574 -0.116636 0.0321887 16711680
0.29179 -0.115822 0.0324378 16711680
0.29184 -0.115073 0.0324887 16711680
0.292091 -0.114247 0.0327804 16711680
0.292259 -0.113452 0.0329729 16711680
0.292264 -0.112721 0.0329695 16711680
0.29253 -0.11189 0.0332794 16711680
0.292501 -0.111172 0.0332346 16711680
0.292813 -0.110325 0.0335999 16711680
0.292999 -0.109526 0.0338134 16711680
0.293023 -0.108788 0.0338326 16711680
0.293607 -0.107839 0.0345249 16711680
0.296477 -0.106029 0.0379647 16711680
0.296668 -0.105232 0.0381851 16711680
0.296342 -0.104629 0.0377835 16711680
0.295886 -0.104075 0.0372257 16711680
0.295326 -0.103559 0.0365434 16711680
0.295363 -0.102819 0.0365775 16711680
0.295063 -0.102205 0.0362078 16711680
0.295111 -0.101462 0.0362558 16711680
0.294962 -0.100792 0.0360669 16711680
0.29511 -0.100011 0.0362347 16711680
0.29528 -0.0992229 0.0364296 16711680
0.295517 -0.0984105 0.0367044 16711680
0.295688 -0.0976226 0.0369006 16711680
0.302235 -0.0944908 0.0447617 16711680
0.302082 -0.0938273 0.0445679 16711680
0.301719 -0.0932406 0.0441221 16711680
0.300844 -0.0928405 0.0430607 16711680
0.300343 -0.0923029 0.0424486 16711680
0.30031 -0.0915942 0.0423998 16711680
0.303909 -0.0895661 0.046717 16711680
0.304831 -0.0885143 0.0478152 16711680
0.304096 -0.0880629 0.046923 16711680
0.303411 -0.0875931 0.0460895 16711680
0.303008 -0.0870207 0.0455949 16711680
0.302273 -0.0865668 0.0447028 16711680
0.301668 -0.0860657 0.0439658 16711680
0.301336 -0.0854659 0.043557 16711680
0.273052 -0.161388 0.00928926 16711680
0.272962 -0.160676 0.00917053 16711680
0.272953 -0.159929 0.00914991 16711680
0.273342 -0.159014 0.00960743 16711680
0.273141 -0.158348 0.00935626 16711680
0.281308 -0.153432 0.0191572 16711680
0.280417 -0.15306 0.0180755 16711680
0.279759 -0.15259 0.0172743 16711680
0.279451 -0.151973 0.0168946 16711680
0.279112 -0.151369 0.0164762 16711680
0.279408 -0.150501 0.0168231 16711680
0.282197 -0.148602 0.0201665 16711680
0.282278 -0.147826 0.0202547 16711680
0.281609 -0.147359 0.0194401 16711680
0.281367 -0.146716 0.0191386 16711680
0.281038 -0.146109 0.0187337 16711680
0.280739 -0.145489 0.0183636 16711680
0.280495 -0.144845 0.018061 16711680
0.279739 -0.144412 0.0171412 16711680
0.279608 -0.143721 0.0169742 16711680
0.279329 -0.143092 0.0166285 16711680
0.2961 -0.134799 0.0367795 16711680
0.295994 -0.134111 0.0366423 16711680
0.296001 -0.133377 0.036642 16711680
0.296132 -0.132593 0.0367895 16711680
0.296145 -0.131858 0.0367949 16711680
0.296344 -0.131047 0.0370249 16711680
0.296151 -0.130395 0.0367825 16711680
0.296304 -0.129603 0.0369569 16711680
0.296134 -0.128941 0.0367434 16711680
0.296197 -0.128186 0.0368094 16711680
0.296079 -0.127503 0.0366571 16711680
0.295917 -0.126838 0.0364531 16711680
0.295478 -0.126283 0.0359148 16711680
0.295417 -0.125577 0.0358319 16711680
0.295018 -0.125005 0.0353429 16711680
0.295019 -0.124274 0.0353345 16711680
0.294506 -0.123747 0.034707 16711680
0.294012 -0.123211 0.0341036 16711680
0.293703 -0.122602 0.0337226 16711680
0.293054 -0.122126 0.0329317 16711680
0.292718 -0.121527 0.0325174 16711680
0.292454 -0.120899 0.0321907 16711680
0.292179 -0.120275 0.0318503 16711680
0.292204 -0.119534 0.0318706 16711680
0.29223 -0.118793 0.0318922 16711680
0.292045 -0.118134 0.0316606 16711680
0.291742 -0.11752 0.0312864 16711680
0.291744 -0.116788 0.0312792 16711680
0.291689 -0.116079 0.0312034 16711680
0.291887 -0.115272 0.0314311 16711680
0.292236 -0.114408 0.031842 16711680
0.2922 -0.113691 0.0317891 16711680
0.292542 -0.112831 0.0321907 16711680
0.292547 -0.112099 0.0321867 16711680
0.292695 -0.111313 0.0323554 16711680
0.292978 -0.110477 0.0326856 16711680
0.292767 -0.109828 0.0324227 16711680
0.293036 -0.108997 0.0327373 16711680
0.295156 -0.107467 0.0352781 16711680
0.297754 -0.105759 0.038394 16711680
0.297351 -0.105186 0.0378997 16711680
0.297006 -0.104591 0.0374751 16711680
0.296511 -0.104051 0.0368693 16711680
0.296041 -0.103502 0.0362951 16711680
0.296008 -0.102789 0.0362448 16711680
0.295696 -0.102179 0.0358602 16711680
0.295739 -0.101438 0.0359025 16711680
0.295556 -0.10078 0.0356731 16711680
0.295864 -0.0999403 0.0360335 16711680
0.296081 -0.0991348 0.0362849 16711680
0.296244 -0.0983494 0.0364724 16711680
0.302392 -0.0953587 0.0438596 16711680
0.303056 -0.0943944 0.0446491 16711680
0.302714 -0.0938005 0.044228 16711680
0.30232 -0.0932249 0.0437454 16711680
0.301588 -0.0927728 0.042855 16711680
0.301248 -0.0921769 0.0424354 16711680
0.302842 -0.0908759 0.0443444 16711680
0.305667 -0.0891297 0.0477346 16711680
0.305332 -0.0885345 0.0473214 16711680
0.304578 -0.0880902 0.0464059 16711680
0.303931 -0.0876065 0.0456178 16711680
0.303635 -0.0869954 0.0452522 16711680
0.302989 -0.0865101 0.0444653 16711680
0.302173 -0.0860849 0.0434738 16711680
0.301846 -0.0854833 0.0430709 16711680
0.274197 -0.160398 0.00951695 16711680
0.274126 -0.159677 0.00942206 16711680
0.27436 -0.158829 0.00969315 16711680
0.281986 -0.154132 0.0188532 16711680
0.281355 -0.153652 0.0180831 16711680
0.280893 -0.1531 0.0175173 16711680
0.280349 -0.152583 0.0168527 16711680
0.280146 -0.151922 0.0165988 16711680
0.279921 -0.151271 0.0163177 16711680
0.282859 -0.149307 0.019845 16711680
0.28331 -0.148378 0.0203778 16711680
0.282934 -0.147791 0.0199153 16711680
0.282227 -0.147341 0.0190541 16711680
0.2822 -0.146609 0.0190125 16711680
0.281722 -0.146063 0.0184274 16711680
0.281656 -0.145347 0.0183381 16711680
0.281239 -0.144775 0.0178255 16711680
0.280573 -0.144305 0.017014 16711680
0.280871 -0.14344 0.0173638 16711680
0.280951 -0.142664 0.0174494 16711680
0.280821 -0.141974 0.0172839 16711680
0.295969 -0.13435 0.0354996 16711680
0.296169 -0.133537 0.0357307 16711680
0.295993 -0.132877 0.0355102 16711680
0.296305 -0.13202 0.0358752 16711680
0.296598 -0.131171 0.0362194 16711680
0.296509 -0.130477 0.0361021 16711680
0.296763 -0.129645 0.0363979 16711680
0.296454 -0.129038 0.0360167 16711680
0.296632 -0.128237 0.0362208 16711680
0.296422 -0.127591 0.0359589 16711680
0.296418 -0.126863 0.0359447 16711680
0.295923 -0.12633 0.0353394 16711680
0.295889 -0.125613 0.0352892 16711680
0.295523 -0.125028 0.034838 16711680
0.295454 -0.124325 0.0347452 16711680
0.294984 -0.12378 0.0341707 16711680
0.294368 -0.123293 0.0334188 16711680
0.294251 -0.122608 0.0332688 16711680
0.293504 -0.122171 0.03236 16711680
0.293144 -0.121581 0.0319163 16711680
0.292945 -0.120928 0.0316668 16711680
0.292641 -0.120315 0.031292 16711680
0.292751 -0.119541 0.0314149 16711680
0.292573 -0.118879 0.0311909 16711680
0.292357 -0.118232 0.0309205 16711680
0.292043 -0.117622 0.0305333 16711680
0.292007 -0.116905 0.0304809 16711680
0.291849 -0.116235 0.0302802 16711680
0.29204 -0.115431 0.0305009 16711680
0.292073 -0.114687 0.0305307 16711680
0.292356 -0.113848 0.0308626 16711680
0.292812 -0.112943 0.0314021 16711680
0.292851 -0.112199 0.0314399 16711680
0.293069 -0.111386 0.0316923 16711680
0.293223 -0.110598 0.0318685 16711680
0.293187 -0.109882 0.0318158 16711680
0.294476 -0.108665 0.0333575 16711680
0.298512 -0.10641 0.038209 16711680
0.298412 -0.105723 0.0380784 16711680
0.297973 -0.105164 0.0375408 16711680
0.297686 -0.104547 0.0371852 16711680
0.297269 -0.103978 0.0366737 16711680
0.297039 -0.103339 0.0363873 16711680
0.296789 -0.102707 0.0360768 16711680
0.296365 -0.10214 0.0355569 16711680
0.296383 -0.101407 0.0355693 16711680
0.296347 -0.100695 0.0355163 16711680
0.296701 -0.0998385 0.0359328 16711680
0.296946 -0.0990224 0.0362194 16711680
0.298754 -0.0976296 0.0383871 16711680
0.304556 -0.0947666 0.0453647 16711680
0.303579 -0.0944071 0.0441794 16711680
0.303206 -0.0938246 0.0437206 16711680
0.302918 -0.0932107 0.0433638 16711680
0.302208 -0.0927505 0.0424998 16711680
0.302854 -0.0917944 0.0432687 16711680
0.306392 -0.0897854 0.0475202 16711680
0.306266 -0.0891143 0.0473592 16711680
0.305796 -0.0885682 0.0467832 16711680
0.305116 -0.0880975 0.0459546 16711680
0.304627 -0.0875567 0.0453568 16711680
0.304249 -0.0869752 0.0448927 16711680
0.30362 -0.0864837 0.0441259 16711680
0.302769 -0.0860716 0.0430908 16711680
0.302258 -0.0855361 0.042466 16711680
0.275297 -0.160177 0.00970173 16711680
0.275432 -0.15937 0.00985456 16711680
0.275335 -0.158661 0.00972807 16711680
0.282417 -0.154191 0.0182403 16711680
0.281596 -0.153791 0.0172418 16711680
0.281338 -0.153154 0.0169213 16711680
0.28097 -0.152563 0.0164685 16711680
0.280809 -0.151885 0.0162646 16711680
0.282509 -0.150433 0.0183029 16711680
0.284557 -0.14884 0.0207613 16711680
0.284591 -0.148084 0.0207922 16711680
0.283731 -0.147698 0.0197465 16711680
0.283597 -0.147011 0.0195751 16711680
0.283413 -0.146345 0.0193434 16711680
0.283385 -0.145614 0.0193002 16711680
0.283475 -0.144835 0.0193985 16711680
0.284237 -0.143781 0.0203075 16711680
0.284973 -0.142739 0.0211841 16711680
0.285893 -0.141622 0.0222837 16711680
0.286567 -0.140608 0.0230857 16711680
0.286904 -0.139732 0.0234822 16711680
0.296078 -0.133802 0.0345086 16711680
0.29599 -0.133106 0.034393 16711680
0.296384 -0.132216 0.0348572 16711680
0.296337 -0.131503 0.0347917 16711680
0.296696 -0.130628 0.0352144 16711680
0.296899 -0.129816 0.0354495 16711680
0.296709 -0.129162 0.0352116 16711680
0.296993 -0.128318 0.0355443 16711680
0.296676 -0.127714 0.0351529 16711680
0.29681 -0.126931 0.0353041 16711680
0.29641 -0.12636 0.0348134 16711680
0.296319 -0.125666 0.0346942 16711680
0.295971 -0.125074 0.0342644 16711680
0.295869 -0.124384 0.0341327 16711680
0.295411 -0.123835 0.0335709 16711680
0.2949 -0.123306 0.0329459 16711680
0.294601 -0.122693 0.032576 16711680
0.293947 -0.122219 0.0317779 16711680
0.293576 -0.121633 0.0313221 16711680
0.293474 -0.120942 0.0311894 16711680
0.293228 -0.120307 0.030883 16711680
0.29322 -0.119578 0.0308645 16711680
0.292945 -0.118954 0.0305232 16711680
0.292805 -0.118278 0.0303446 16711680
0.29254 -0.117649 0.0300162 16711680
0.292498 -0.116934 0.0299559 16711680
0.292391 -0.116244 0.0298183 16711680
0.292551 -0.115452 0.030001 16711680
0.292715 -0.114658 0.0301898 16711680
0.29297 -0.11383 0.0304868 16711680
0.293491 -0.1129 0.0311052 16711680
0.29359 -0.112132 0.0312159 16711680
0.293664 -0.111374 0.0312952 16711680
0.293906 -0.110553 0.0315772 16711680
0.294061 -0.109765 0.0317551 16711680
0.299419 -0.107004 0.0382041 16711680
0.299631 -0.106199 0.0384492 16711680
0.298979 -0.105721 0.037654 16711680
0.298485 -0.105182 0.0370495 16711680
0.298397 -0.10449 0.0369339 16711680
0.29792 -0.103944 0.0363505 16711680
0.297964 -0.103203 0.036393 16711680
0.297553 -0.102631 0.0358893 16711680
0.297422 -0.101955 0.0357213 16711680
0.297263 -0.101289 0.0355207 16711680
0.297645 -0.100421 0.035972 16711680
0.29754 -0.0997358 0.035835 16711680
0.305015 -0.094803 0.0448184 16711680
0.304093 -0.0944237 0.043697 16711680
0.303656 -0.0938646 0.0431614 16711680
0.303514 -0.0931968 0.0429811 16711680
0.303411 -0.0925149 0.0428474 16711680
0.306917 -0.0905142 0.0470644 16711680
0.307158 -0.0897091 0.0473462 16711680
0.306725 -0.08915 0.0468148 16711680
0.30628 -0.0885945 0.0462693 16711680
0.305682 -0.0880944 0.0455384 16711680
0.305259 -0.0875296 0.0450201 16711680
0.304798 -0.0869784 0.0444549 16711680
0.30419 -0.0864796 0.0437126 16711680
0.303353 -0.0860624 0.042694 16711680
0.302943 -0.0854907 0.0421908 16711680
0.276187 -0.160044 0.00963557 16711680
0.276605 -0.159118 0.0101295 16711680
0.281556 -0.156284 0.0160897 16711680
0.283764 -0.15461 0.0187429 16711680
0.282739 -0.154296 0.0174972 16711680
0.282046 -0.153842 0.0166523 16711680
0.281929 -0.153146 0.0165013 16711680
0.281638 -0.152523 0.0161407 16711680
0.28172 -0.151744 0.0162299 16711680
0.285918 -0.149253 0.0212824 16711680
0.285905 -0.148517 0.021257 16711680
0.285845 -0.147801 0.0211757 16711680
0.285746 -0.1471 0.0210466 16711680
0.285727 -0.146367 0.0210137 16711680
0.285919 -0.145547 0.0212356 16711680
0.285908 -0.144811 0.0212132 16711680
0.286351 -0.143888 0.0217375 16711680
0.286791 -0.142967 0.0222591 16711680
0.287022 -0.142133 0.0225286 16711680
0.287332 -0.141267 0.0228921 16711680
0.287703 -0.140377 0.0233307 16711680
0.287681 -0.139647 0.0232942 16711680
0.287724 -0.138891 0.0233363 16711680
0.296262 -0.133224 0.0336057 16711680
0.296311 -0.132473 0.0336556 16711680
0.296352 -0.131725 0.0336955 16711680
0.296702 -0.130853 0.0341076 16711680
0.296997 -0.130003 0.0344547 16711680
0.297041 -0.129255 0.034498 16711680
0.29724 -0.128445 0.0347286 16711680
0.297002 -0.127809 0.0344318 16711680
0.297064 -0.127054 0.0344974 16711680
0.296836 -0.126415 0.0342132 16711680
0.296665 -0.125753 0.0339975 16711680
0.29635 -0.125147 0.033608 16711680
0.296056 -0.124533 0.0332444 16711680
0.295832 -0.123891 0.0329651 16711680
0.295269 -0.123383 0.0322759 16711680
0.294892 -0.1228 0.0318117 16711680
0.294349 -0.122283 0.0311475 16711680
0.29402 -0.12168 0.0307416 16711680
0.294024 -0.120947 0.0307372 16711680
0.293817 -0.120297 0.0304775 16711680
0.293717 -0.119605 0.0303478 16711680
0.293388 -0.119002 0.0299412 16711680
0.293358 -0.118282 0.0298964 16711680
0.293142 -0.117635 0.0296264 16711680
0.293093 -0.116923 0.0295573 16711680
0.29299 -0.116231 0.0294241 16711680
0.293314 -0.115375 0.0298057 16711680
0.293951 -0.1144 0.0305641 16711680
0.294106 -0.11361 0.0307425 16711680
0.29428 -0.112814 0.0309418 16711680
0.294509 -0.111997 0.0312091 16711680
0.294392 -0.111312 0.0310589 16711680
0.29491 -0.110386 0.0316741 16711680
0.300445 -0.107553 0.0383424 16711680
0.3003 -0.106883 0.0381581 16711680
0.299994 -0.106274 0.0377797 16711680
0.299551 -0.105717 0.0372362 16711680
0.299077 -0.105171 0.0366551 16711680
0.299075 -0.104447 0.0366429 16711680
0.298769 -0.103837 0.0362645 16711680
0.298769 -0.103112 0.0362558 16711680
0.298335 -0.102549 0.0357227 16711680
0.29855 -0.101744 0.0359724 16711680
0.29844 -0.10106 0.0358312 16711680
0.298784 -0.100207 0.0362369 16711680
0.306003 -0.095363 0.0449191 16711680
0.305498 -0.0948308 0.0443002 16711680
0.304629 -0.0944318 0.0432427 16711680
0.304379 -0.0938042 0.0429318 16711680
0.30419 -0.0931538 0.0426947 16711680
0.307638 -0.0911711 0.0468459 16711680
0.308469 -0.0901502 0.0478392 16711680
0.307629 -0.0897403 0.0468168 16711680
0.307149 -0.0891981 0.0462289 16711680
0.306837 -0.0885945 0.045843 16711680
0.306302 -0.0880715 0.0451877 16711680
0.305624 -0.0875994 0.0443606 16711680
0.305357 -0.086978 0.0440292 16711680
0.304718 -0.0864905 0.0432489 16711680
0.30386 -0.0860808 0.0422047 16711680
0.303459 -0.0855061 0.0417117 16711680
0.277812 -0.159601 0.0104561 16711680
0.284692 -0.155203 0.018741 16711680
0.28408 -0.154718 0.0179924 16711680
0.283059 -0.154402 0.0167502 16711680
0.282537 -0.153876 0.0161114 16711680
0.282588 -0.15311 0.0161635 16711680
0.282463 -0.152418 0.016003 16711680
0.285013 -0.15061 0.0190711 16711680
0.286638 -0.149191 0.0210235 16711680
0.28663 -0.148453 0.021004 16711680
0.286489 -0.14777 0.0208244 16711680
0.286543 -0.147007 0.0208796 16711680
0.28632 -0.146358 0.0206014 16711680
0.286576 -0.145511 0.0209004 16711680
0.286543 -0.144784 0.0208519 16711680
0.286726 -0.143968 0.0210626 16711680
0.287053 -0.143094 0.0214486 16711680
0.287166 -0.142307 0.0215755 16711680
0.28757 -0.141403 0.0220532 16711680
0.287673 -0.140621 0.0221679 16711680
0.287621 -0.139903 0.0220968 16711680
0.287969 -0.139023 0.0225068 16711680
0.296789 -0.133239 0.0331262 16711680
0.296364 -0.132679 0.0326039 16711680
0.29653 -0.13188 0.0327948 16711680
0.296615 -0.131114 0.0328882 16711680
0.296916 -0.130262 0.0332421 16711680
0.297262 -0.129392 0.0336504 16711680
0.297392 -0.12861 0.0337976 16711680
0.297353 -0.127894 0.0337414 16711680
0.297303 -0.127184 0.0336716 16711680
0.297171 -0.126506 0.0335029 16711680
0.297043 -0.125826 0.0333401 16711680
0.296822 -0.125184 0.0330632 16711680
0.296493 -0.124583 0.0326571 16711680
0.296222 -0.12396 0.0323207 16711680
0.295666 -0.123449 0.0316397 16711680
0.295315 -0.122856 0.0312072 16711680
0.294809 -0.122324 0.030586 16711680
0.29449 -0.121718 0.0301918 16711680
0.294459 -0.120998 0.0301455 16711680
0.294327 -0.120319 0.0299765 16711680
0.294199 -0.119637 0.0298125 16711680
0.293932 -0.11901 0.0294813 16711680
0.293899 -0.118292 0.0294318 16711680
0.293673 -0.117648 0.0291494 16711680
0.293708 -0.116903 0.0291831 16711680
0.29374 -0.11616 0.0292115 16711680
0.294215 -0.115246 0.0297761 16711680
0.294888 -0.114257 0.0305798 16711680
0.295266 -0.113382 0.0310265 16711680
0.295238 -0.112663 0.0309839 16711680
0.295635 -0.111782 0.0314536 16711680
0.295795 -0.110992 0.0316374 16711680
0.300856 -0.108334 0.0377403 16711680
0.301409 -0.107399 0.038398 16711680
0.30085 -0.106887 0.0377135 16711680
0.300447 -0.106315 0.0372187 16711680
0.300159 -0.1057 0.0368608 16711680
0.299862 -0.105087 0.0364932 16711680
0.29974 -0.104408 0.0363364 16711680
0.299396 -0.103812 0.0359122 16711680
0.299505 -0.103046 0.0360351 16711680
0.2993 -0.102398 0.0357776 16711680
0.299363 -0.10165 0.0358453 16711680
0.299507 -0.100871 0.0360101 16711680
0.306809 -0.0959899 0.0448008 16711680
0.30642 -0.0954152 0.0443214 16711680
0.305949 -0.0948704 0.0437433 16711680
0.305308 -0.0943875 0.0429598 16711680
0.305008 -0.0937782 0.0425889 16711680
0.306983 -0.0923334 0.0449646 16711680
0.309148 -0.0908217 0.0475705 16711680
0.309007 -0.0901567 0.0473917 16711680
0.308155 -0.0897517 0.0463527 16711680
0.307679 -0.0892081 0.0457691 16711680
0.307357 -0.0886079 0.0453718 16711680
0.306777 -0.0881013 0.0446618 16711680
0.306167 -0.0876048 0.0439159 16711680
0.305852 -0.0870005 0.043527 16711680
0.305212 -0.0865136 0.0427444 16711680
0.304414 -0.0860824 0.041772 16711680
0.303901 -0.0855481 0.0411428 16711680
0.303463 -0.0849859 0.0406054 16711680
0.302723 -0.0845316 0.0397021 16711680
0.282661 -0.157792 0.0151746 16711680
0.285001 -0.156059 0.0179911 16711680
0.28547 -0.155117 0.0185484 16711680
0.284616 -0.154732 0.017508 16711680
0.283533 -0.154444 0.0161899 16711680
0.283023 -0.153913 0.0155644 16711680
0.283179 -0.153103 0.015743 16711680
0.284616 -0.151757 0.0174702 16711680
0.287358 -0.14987 0.0207738 16711680
0.287194 -0.149197 0.0205655 16711680
0.287126 -0.148484 0.0204738 16711680
0.28697 -0.147807 0.0202761 16711680
0.286936 -0.14708 0.0202262 16711680
0.286644 -0.14646 0.019864 16711680
0.286735 -0.145681 0.0199646 16711680
0.286608 -0.144992 0.0198013 16711680
0.286917 -0.144124 0.0201659 16711680
0.286923 -0.143381 0.0201633 16711680
0.287287 -0.142491 0.0205941 16711680
0.287688 -0.141588 0.0210682 16711680
0.287617 -0.140877 0.0209736 16711680
0.287906 -0.140019 0.0213138 16711680
0.287895 -0.139284 0.0212914 16711680
0.287884 -0.13855 0.0212686 16711680
0.287521 -0.137958 0.02082 16711680
0.296708 -0.132768 0.0319021 16711680
0.296746 -0.132021 0.0319396 16711680
0.296584 -0.131354 0.0317342 16711680
0.297033 -0.130442 0.0322676 16711680
0.29746 -0.129539 0.0327747 16711680
0.297329 -0.12886 0.0326067 16711680
0.297555 -0.128039 0.0328709 16711680
0.297344 -0.127392 0.0326065 16711680
0.297422 -0.12663 0.0326916 16711680
0.297063 -0.126042 0.0322486 16711680
0.297087 -0.125302 0.0322683 16711680
0.296828 -0.124674 0.0319465 16711680
0.296737 -0.12398 0.0318266 16711680
0.296233 -0.123448 0.0312084 16711680
0.295935 -0.122834 0.0308394 16711680
0.295406 -0.122311 0.0301903 16711680
0.295002 -0.121739 0.0296928 16711680
0.294957 -0.121025 0.0296298 16711680
0.294859 -0.120332 0.0295018 16711680
0.294801 -0.119623 0.0294225 16711680
0.294586 -0.118976 0.0291535 16711680
0.294555 -0.118257 0.0291065 16711680
0.29434 -0.117609 0.0288384 16711680
0.294658 -0.116754 0.0292133 16711680
0.29539 -0.115741 0.0300884 16711680
0.295547 -0.11495 0.0302696 16711680
0.295915 -0.114079 0.0307046 16711680
0.29676 -0.113025 0.0317165 16711680
0.29702 -0.112196 0.0320222 16711680
0.297288 -0.111365 0.0323367 16711680
0.301739 -0.108936 0.0377077 16711680
0.302186 -0.108041 0.0382385 16711680
0.301898 -0.107427 0.037881 16711680
0.301362 -0.106906 0.0372239 16711680
0.301054 -0.106298 0.0368421 16711680
0.300795 -0.105671 0.036521 16711680
0.300558 -0.105036 0.0362245 16711680
0.300399 -0.104371 0.036024 16711680
0.300206 -0.103719 0.0357813 16711680
0.300181 -0.103003 0.0357418 16711680
0.300261 -0.102249 0.0358292 16711680
0.300317 -0.101503 0.035888 16711680
0.307935 -0.0964976 0.0450691 16711680
0.307223 -0.0960432 0.0441997 16711680
0.306575 -0.0955642 0.0434077 16711680
0.306458 -0.0948884 0.0432568 16711680
0.30594 -0.09436 0.0426221 16711680
0.306837 -0.0933106 0.0436964 16711680
0.310022 -0.0914214 0.0475379 16711680
0.309767 -0.0907986 0.0472208 16711680
0.309426 -0.0902069 0.0468 16711680
0.308696 -0.0897573 0.0459077 16711680
0.308221 -0.0892133 0.0453255 16711680
0.307915 -0.0886076 0.0449463 16711680
0.307389 -0.0880812 0.0443019 16711680
0.306749 -0.0875957 0.0435191 16711680
0.306394 -0.0870062 0.043081 16711680
0.305758 -0.0865181 0.042302 16711680
0.304977 -0.086081 0.0413492 16711680
0.304507 -0.0855311 0.0407724 16711680
0.304094 -0.0849603 0.040264 16711680
0.30327 -0.0845362 0.0392585 16711680
0.283933 -0.158242 0.0155863 16711680
0.28466 -0.157189 0.0164552 16711680
0.286401 -0.155708 0.0185517 16711680
0.286477 -0.154933 0.0186346 16711680
0.285427 -0.154632 0.0173556 16711680
0.284191 -0.154408 0.0158517 16711680
0.283731 -0.153856 0.0152857 16711680
0.286267 -0.152049 0.018343 16711680
0.28803 -0.150569 0.020466 16711680
0.287947 -0.149862 0.0203553 16711680
0.287689 -0.149228 0.0200342 16711680
0.287514 -0.14856 0.019814 16711680
0.287473 -0.147835 0.0197549 16711680
0.287239 -0.147191 0.0194627 16711680
0.286889 -0.146595 0.0190297 16711680
0.28663 -0.14596 0.0187079 16711680
0.286796 -0.14515 0.0188985 16711680
0.286775 -0.144418 0.0188638 16711680
0.286911 -0.14362 0.0190198 16711680
0.28747 -0.14265 0.0196859 16711680
0.28742 -0.141931 0.0196158 16711680
0.287811 -0.14103 0.0200799 16711680
0.288273 -0.140102 0.0206294 16711680
0.288252 -0.139371 0.0205945 16711680
0.288353 -0.138591 0.0207077 16711680
0.288256 -0.137891 0.0205806 16711680
0.297249 -0.132046 0.0314305 16711680
0.2965 -0.131615 0.0305151 16711680
0.296945 -0.130704 0.0310439 16711680
0.297375 -0.129799 0.0315555 16711680
0.297524 -0.129008 0.0317258 16711680
0.297823 -0.128157 0.032079 16711680
0.297613 -0.12751 0.0318152 16711680
0.297744 -0.126727 0.031965 16711680
0.2973 -0.126173 0.0314181 16711680
0.297345 -0.125424 0.0314636 16711680
0.297094 -0.124792 0.0311513 16711680
0.297154 -0.124038 0.0312142 16711680
0.296712 -0.123481 0.0306714 16711680
0.296862 -0.122692 0.0308431 16711680
0.29661 -0.12206 0.0305297 16711680
0.295803 -0.121646 0.029544 16711680
0.295533 -0.121021 0.0292077 16711680
0.295331 -0.120368 0.0289552 16711680
0.295385 -0.119616 0.0290112 16711680
0.295299 -0.118918 0.0288973 16711680
0.2954 -0.118148 0.0290104 16711680
0.295848 -0.117243 0.0295432 16711680
0.295861 -0.116507 0.0295509 16711680
0.296621 -0.115483 0.0304607 16711680
0.297452 -0.114433 0.0314565 16711680
0.297911 -0.113527 0.0320035 16711680
0.297842 -0.112825 0.0319107 16711680
0.298376 -0.111892 0.0325475 16711680
0.30233 -0.10965 0.0373219 16711680
0.30314 -0.108615 0.0382929 16711680
0.302747 -0.108041 0.0378079 16711680
0.302372 -0.10746 0.0373456 16711680
0.301856 -0.106931 0.0367124 16711680
0.301631 -0.106292 0.036431 16711680
0.301355 -0.105672 0.0360883 16711680
0.301214 -0.105 0.0359088 16711680
0.301082 -0.104325 0.0357401 16711680
0.301023 -0.103623 0.0356587 16711680
0.30108 -0.102877 0.0357187 16711680
0.301392 -0.102035 0.0360875 16711680
0.308768 -0.0971133 0.0449849 16711680
0.308225 -0.096597 0.0443189 16711680
0.307768 -0.096048 0.0437567 16711680
0.307371 -0.0954761 0.0432676 16711680
0.307089 -0.0948611 0.0429181 16711680
0.307551 -0.0939717 0.0434672 16711680
0.310912 -0.0920146 0.0475255 16711680
0.310659 -0.0913915 0.0472105 16711680
0.310179 -0.0908513 0.0466208 16711680
0.309893 -0.0902397 0.0462656 16711680
0.309219 -0.0897695 0.0454412 16711680
0.308723 -0.0892334 0.0448325 16711680
0.308503 -0.0885963 0.0445575 16711680
0.307863 -0.0881117 0.0437739 16711680
0.307203 -0.0876335 0.0429664 16711680
0.306948 -0.0870079 0.0426484 16711680
0.306329 -0.0865133 0.0418911 16711680
0.305508 -0.0860909 0.0408887 16711680
0.305115 -0.0855136 0.0404038 16711680
0.304606 -0.084977 0.03978 16711680
0.284275 -0.15834 0.0148647 16711680
0.284943 -0.157312 0.0156635 16711680
0.288095 -0.155234 0.0194688 16711680
0.287896 -0.154575 0.0192187 16711680
0.287004 -0.154208 0.0181305 16711680
0.287171 -0.153395 0.0183229 16711680
0.288777 -0.151978 0.0202575 16711680
0.288979 -0.151152 0.0204928 16711680
0.288578 -0.150578 0.0199982 16711680
0.288327 -0.149942 0.019685 16711680
0.288194 -0.149256 0.0195152 16711680
0.288027 -0.148584 0.0193036 16711680
0.287961 -0.14787 0.0192146 16711680
0.287605 -0.147276 0.0187751 16711680
0.287451 -0.146598 0.018579 16711680
0.2871 -0.146002 0.0181453 16711680
0.287152 -0.145239 0.0181985 16711680
0.287065 -0.144533 0.0180848 16711680
0.287227 -0.143725 0.0182711 16711680
0.287696 -0.142792 0.0188293 16711680
0.287836 -0.141994 0.0189897 16711680
0.288203 -0.141103 0.0194246 16711680
0.288791 -0.140123 0.0201279 16711680
0.288788 -0.139385 0.0201147 16711680
0.288943 -0.138583 0.020293 16711680
0.28933 -0.137686 0.0207531 16711680
0.28903 -0.13707 0.0203799 16711680
0.297266 -0.132267 0.0303322 16711680
0.296745 -0.131745 0.0296922 16711680
0.296612 -0.131065 0.0295231 16711680
0.297074 -0.130147 0.0300729 16711680
0.297494 -0.129247 0.0305719 16711680
0.297673 -0.128443 0.0307806 16711680
0.297847 -0.127642 0.0309819 16711680
0.297989 -0.126854 0.0311441 16711680
0.297567 -0.126291 0.0306243 16711680
0.297718 -0.1255 0.0307988 16711680
0.29736 -0.124911 0.0303557 16711680
0.297471 -0.124136 0.0304815 16711680
0.296919 -0.123623 0.029804 16711680
0.297175 -0.122791 0.0301049 16711680
0.298175 -0.121666 0.0313061 16711680
0.29802 -0.120997 0.0311092 16711680
0.296525 -0.120853 0.0292909 16711680
0.296034 -0.120314 0.0286865 16711680
0.296145 -0.11954 0.0288128 16711680
0.296444 -0.118692 0.0291661 16711680
0.296511 -0.117935 0.029238 16711680
0.296967 -0.117028 0.0297807 16711680
0.29774 -0.115998 0.030707 16711680
0.29824 -0.115075 0.0313042 16711680
0.298521 -0.114238 0.0316356 16711680
