# .PCD v0.7 - Point Cloud Data file format
VERSION 0.7
FIELDS x y z rgb
SIZE 4 4 4 4
TYPE F F F F
COUNT 1 1 1 1
WIDTH 1241
HEIGHT 1
VIEWPOINT 0 0 0 1 0 0 0
POINTS 1241
DATA ascii
0.285557 -0.010033 0.058454 16711680
0.285233 -0.00941709 0.0580636 16711680
0.285299 -0.0086931 0.0581288 16711680
0.284938 -0.00808713 0.0576946 16711680
0.284881 -0.00739679 0.0576169 16711680
0.284531 -0.00678712 0.0571957 16711680
0.284273 -0.00615174 0.0568829 16711680
0.283976 -0.00552675 0.0565243 16711680
0.283539 -0.00493959 0.0560019 16711680
0.283631 -0.0042083 0.0560977 16711680
0.283654 -0.0034959 0.056113 16711680
0.283246 -0.00290021 0.055624 16711680
0.282098 -0.00250325 0.054271 16711680
0.259961 -0.00485608 0.0283384 16711680
0.271518 0.00249827 0.0417765 16711680
0.270542 0.00295666 0.0406239 16711680
0.269955 0.00351748 0.0399255 16711680
0.269153 0.0040234 0.0389766 16711680
0.268701 0.00462079 0.0384359 16711680
0.267915 0.00513268 0.037506 16711680
0.267781 0.0058133 0.0373374 16711680
0.267955 0.00657308 0.0375286 16711680
0.267824 0.00725463 0.0373646 16711680
0.267335 0.00784448 0.0367804 16711680
0.266798 0.00842294 0.0361414 16711680
0.266121 0.00896636 0.0353379 16711680
0.265723 0.00958142 0.0348612 16711680
0.265266 0.0101818 0.0343148 16711680
0.264816 0.0107847 0.0337771 16711680
0.264504 0.0114228 0.0334005 16711680
0.264681 0.0121837 0.0335959 16711680
0.264416 0.0128338 0.0332743 16711680
0.264433 0.0135546 0.0332831 16711680
0.264055 0.0141768 0.0328288 16711680
0.264414 0.0149823 0.0332373 16711680
0.263999 0.015596 0.0327408 16711680
0.264064 0.0163282 0.0328046 16711680
0.263972 0.0170217 0.032685 16711680
0.264086 0.0177659 0.0328074 16711680
0.263893 0.0184347 0.0325701 16711680
0.264187 0.0192221 0.0329013 16711680
0.264243 0.0199514 0.0329553 16711680
0.264202 0.020657 0.0328954 16711680
0.264345 0.021407 0.0330513 16711680
0.264571 0.0221768 0.0333042 16711680
0.266117 0.0232629 0.0350997 16711680
0.267388 0.0242812 0.0365746 16711680
0.267587 0.0250415 0.0367954 16711680
0.267256 0.0256754 0.0363973 16711680
0.265903 0.0260669 0.0348029 16711680
0.264944 0.0265537 0.033671 16711680
0.265213 0.0273312 0.0339731 16711680
0.265227 0.0280485 0.0339783 16711680
0.265107 0.028734 0.033826 16711680
0.265106 0.0294475 0.0338131 16711680
0.265925 0.0303522 0.0347596 16711680
0.267351 0.0313968 0.0364158 16711680
0.26758 0.0321617 0.0366716 16711680
0.266663 0.0326616 0.0355885 16711680
0.265927 0.0332041 0.0347159 16711680
0.272473 -0.0504437 0.0426843 16711680
0.271704 -0.0499637 0.0417733 16711680
0.271129 -0.0494222 0.0410891 16711680
0.271352 -0.0486314 0.0413369 16711680
0.271397 -0.0478962 0.0413779 16711680
0.270772 -0.0473691 0.040635 16711680
0.269975 -0.0468945 0.039691 16711680
0.269058 -0.0464557 0.0386074 16711680
0.269776 -0.0455124 0.039434 16711680
0.271449 -0.0442759 0.0413791 16711680
0.270754 -0.0437689 0.0405538 16711680
0.270145 -0.0432344 0.0398296 16711680
0.269977 -0.0425644 0.0396219 16711680
0.269649 -0.0419431 0.0392263 16711680
0.269431 -0.0412883 0.0389585 16711680
0.26913 -0.0406582 0.038595 16711680
0.269061 -0.0399576 0.0385026 16711680
0.268741 -0.0393328 0.0381163 16711680
0.268544 -0.0386707 0.037874 16711680
0.26826 -0.0380344 0.0375301 16711680
0.26827 -0.0373097 0.0375302 16711680
0.268061 -0.0366508 0.0372732 16711680
0.26827 -0.0358668 0.0375062 16711680
0.268313 -0.0351328 0.0375443 16711680
0.268768 -0.0342765 0.0380642 16711680
0.269078 -0.0334641 0.0384145 16711680
0.269173 -0.0327156 0.0385138 16711680
0.269553 -0.0318834 0.038946 16711680
0.269595 -0.0311512 0.0389832 16711680
0.269727 -0.0303925 0.0391268 16711680
0.269761 -0.029663 0.0391546 16711680
0.269776 -0.0289395 0.0391595 16711680
0.269921 -0.0281779 0.0393175 16711680
0.270012 -0.0274324 0.0394123 16711680
0.270162 -0.0266702 0.039575 16711680
0.26992 -0.0260215 0.0392801 16711680
0.270022 -0.0252731 0.0393884 16711680
0.269593 -0.024678 0.038875 16711680
0.269445 -0.0240019 0.0386894 16711680
0.269027 -0.0234028 0.0381888 16711680
0.268452 -0.022848 0.0375049 16711680
0.268377 -0.0221503 0.0374047 16711680
0.268028 -0.0215302 0.0369848 16711680
0.267837 -0.020865 0.0367498 16711680
0.267633 -0.0202034 0.0364995 16711680
0.267352 -0.0195633 0.0361589 16711680
0.267248 -0.0188732 0.0360249 16711680
0.266964 -0.0182334 0.0356811 16711680
0.266912 -0.0175285 0.0356083 16711680
0.286714 -0.0112771 0.0587591 16711680
0.286796 -0.0105488 0.0588433 16711680
0.286368 -0.00996259 0.0583303 16711680
0.285932 -0.00937775 0.0578096 16711680
0.285866 -0.00869036 0.0577203 16711680
0.285424 -0.00810668 0.0571915 16711680
0.285379 -0.00741318 0.0571271 16711680
0.285005 -0.0068098 0.056679 16711680
0.28475 -0.00617367 0.0563689 16711680
0.284565 -0.00551832 0.0561402 16711680
0.28416 -0.00492254 0.055655 16711680
0.284503 -0.004123 0.0560451 16711680
0.285098 -0.00325584 0.0567297 16711680
0.284096 -0.00282118 0.055546 16711680
0.283135 -0.00237441 0.0544094 16711680
0.275679 0.00201842 0.0455835 16711680
0.27433 0.00237486 0.0439926 16711680
0.273003 0.00273913 0.0424287 16711680
0.272055 0.00320408 0.041308 16711680
0.270952 0.0036298 0.0400054 16711680
0.270103 0.00412315 0.0390011 16711680
0.269302 0.00462982 0.038052 16711680
0.268376 0.00510523 0.0369568 16711680
0.268329 0.0058085 0.0368907 16711680
0.269072 0.00671461 0.0377485 16711680
0.268816 0.00736365 0.0374374 16711680
0.268856 0.00808838 0.037472 16711680
0.268516 0.00871634 0.0370631 16711680
0.268044 0.00931099 0.0364991 16711680
0.267221 0.00981724 0.0355246 16711680
0.265867 0.0101903 0.0339286 16711680
0.265604 0.0108402 0.033609 16711680
0.265611 0.0115582 0.0336055 16711680
0.265573 0.0122648 0.0335494 16711680
0.265519 0.0129674 0.0334742 16711680
0.265358 0.0136433 0.0332744 16711680
0.26531 0.0143475 0.0332069 16711680
0.265279 0.0150556 0.0331582 16711680
0.265069 0.0157197 0.0329014 16711680
0.265027 0.0164254 0.032841 16711680
0.264802 0.0170858 0.0325651 16711680
0.264808 0.0178033 0.0325611 16711680
0.264791 0.018515 0.0325296 16711680
0.264887 0.0192542 0.0326307 16711680
0.265279 0.020065 0.033078 16711680
0.265846 0.0209176 0.0337294 16711680
0.266808 0.0218647 0.0348432 16711680
0.268033 0.0228739 0.036266 16711680
0.268309 0.0236532 0.0365771 16711680
0.268146 0.0243268 0.0363748 16711680
0.268186 0.0250491 0.0364102 16711680
0.268059 0.0257314 0.0362498 16711680
0.267882 0.0264019 0.036031 16711680
0.266423 0.0267691 0.0343124 16711680
0.265828 0.0273423 0.033605 16711680
0.265959 0.028087 0.0337467 16711680
0.265882 0.0287824 0.0336442 16711680
0.265941 0.0295099 0.0337024 16711680
0.26625 0.0302954 0.0340521 16711680
0.267388 0.0312732 0.0353724 16711680
0.26842 0.0322251 0.03657 16711680
0.268145 0.0328729 0.0362364 16711680
0.267444 0.0334229 0.0354047 16711680
0.273446 -0.0503156 0.0427319 16711680
0.272454 -0.0499059 0.0415596 16711680
0.271746 -0.0494061 0.0407192 16711680
0.272239 -0.048531 0.0412837 16711680
0.272098 -0.0478539 0.0411073 16711680
0.271486 -0.0473228 0.0403794 16711680
0.270555 -0.04689 0.0392779 16711680
0.269698 -0.0464331 0.0382628 16711680
0.270697 -0.0454028 0.0394198 16711680
0.272343 -0.0441748 0.0413345 16711680
0.271267 -0.0437848 0.0400635 16711680
0.269986 -0.0434564 0.0385516 16711680
0.270057 -0.042713 0.0386231 16711680
0.270458 -0.041869 0.0390812 16711680
0.270308 -0.0411936 0.0388935 16711680
0.270202 -0.0405047 0.0387572 16711680
0.269845 -0.0398917 0.0383276 16711680
0.269456 -0.0392878 0.0378608 16711680
0.269306 -0.0386117 0.0376729 16711680
0.268888 -0.0380161 0.0371711 16711680
0.269052 -0.0372451 0.0373522 16711680
0.268819 -0.0365935 0.0370673 16711680
0.26897 -0.0358272 0.0372319 16711680
0.268882 -0.0351323 0.0371166 16711680
0.269369 -0.0342663 0.0376755 16711680
0.269462 -0.0335181 0.0377722 16711680
0.269639 -0.032745 0.0379683 16711680
0.269926 -0.0319402 0.0382919 16711680
0.269914 -0.0312239 0.0382652 16711680
0.27041 -0.0303583 0.0388347 16711680
0.271728 -0.0292528 0.0403659 16711680
0.271693 -0.0285448 0.0403124 16711680
0.271523 -0.0278761 0.0401015 16711680
0.270964 -0.0273202 0.0394356 16711680
0.270805 -0.0266477 0.0392379 16711680
0.270482 -0.0260223 0.0388485 16711680
0.270613 -0.025266 0.0389892 16711680
0.270205 -0.0246648 0.0385004 16711680
0.269929 -0.0240254 0.0381656 16711680
0.269583 -0.0234058 0.0377485 16711680
0.269022 -0.0228473 0.0370796 16711680
0.268983 -0.0221389 0.0370233 16711680
0.268603 -0.0215278 0.0365665 16711680
0.268492 -0.0208403 0.0364237 16711680
0.268254 -0.0201881 0.0361344 16711680
0.267999 -0.0195409 0.0358231 16711680
0.267796 -0.0188785 0.0355746 16711680
0.267474 -0.0182494 0.0351861 16711680
0.267355 -0.0175634 0.0350341 16711680
0.287537 -0.0112027 0.058651 16711680
0.287708 -0.0104498 0.058839 16711680
0.287177 -0.00989228 0.0582064 16711680
0.286963 -0.00924626 0.0579445 16711680
0.286592 -0.00864354 0.0574986 16711680
0.285974 -0.00810862 0.0567632 16711680
0.285976 -0.00740212 0.0567542 16711680
0.285596 -0.00680071 0.0562977 16711680
0.285571 -0.00610164 0.0562568 16711680
0.2854 -0.00544238 0.0560457 16711680
0.286095 -0.00454715 0.0568477 16711680
0.286172 -0.00382102 0.0569259 16711680
0.285771 -0.00322446 0.0564456 16711680
0.284784 -0.00278601 0.0552784 16711680
0.283821 -0.00233987 0.0541391 16711680
0.282652 -0.001948 0.0527583 16711680
0.274854 0.0030762 0.0435117 16711680
0.273375 0.00340152 0.0417689 16711680
0.272057 0.00377056 0.0402137 16711680
0.271168 0.00425288 0.0391612 16711680
0.270063 0.00468031 0.0378554 16711680
0.26926 0.0051873 0.0369035 16711680
0.26921 0.00588953 0.0368338 16711680
0.269881 0.0067769 0.0376077 16711680
0.269532 0.00740188 0.0371877 16711680
0.26957 0.00812602 0.03722 16711680
0.269357 0.00878614 0.0369592 16711680
0.269417 0.00951594 0.0370183 16711680
0.269033 0.0101328 0.0365566 16711680
0.267594 0.0104834 0.03486 16711680
0.266412 0.0109005 0.0334637 16711680
0.266413 0.011617 0.0334539 16711680
0.266325 0.012311 0.0333396 16711680
0.266516 0.0130746 0.0335511 16711680
0.266295 0.0137352 0.0332808 16711680
0.266394 0.0144756 0.0333853 16711680
0.266121 0.0151236 0.0330541 16711680
0.266059 0.015824 0.0329701 16711680
0.265751 0.0164637 0.0325979 16711680
0.265894 0.0172145 0.0327535 16711680
0.265819 0.0179118 0.0326544 16711680
0.26662 0.0188231 0.0335805 16711680
0.267548 0.0197644 0.0346564 16711680
0.268925 0.0208133 0.0362579 16711680
0.269312 0.0216201 0.0366993 16711680
0.269245 0.0223166 0.0366092 16711680
0.269096 0.0229935 0.0364237 16711680
0.269006 0.0236846 0.0363075 16711680
0.268692 0.0243218 0.0359278 16711680
0.268609 0.0250146 0.0358185 16711680
0.268768 0.0257654 0.0359942 16711680
0.268988 0.0265301 0.0362405 16711680
0.268059 0.0270223 0.035141 16711680
0.266684 0.0274102 0.0335187 16711680
0.266561 0.0280948 0.0333627 16711680
0.266868 0.0288806 0.0337113 16711680
0.267119 0.0296527 0.033994 16711680
0.266848 0.0303024 0.0336646 16711680
0.267752 0.0312259 0.0347122 16711680
0.269108 0.032253 0.0362893 16711680
0.269591 0.0330762 0.0368443 16711680
0.268688 0.0335788 0.0357745 16711680
0.267802 0.0340865 0.0347254 16711680
0.274481 -0.0501675 0.0428547 16711680
0.273273 -0.0498262 0.0414273 16711680
0.27237 -0.0493877 0.0403582 16711680
0.272995 -0.0484713 0.0410782 16711680
0.273039 -0.0477369 0.0411174 16711680
0.272269 -0.0472553 0.040204 16711680
0.271296 -0.0468359 0.039052 16711680
0.270473 -0.0463685 0.0380769 16711680
0.271692 -0.0452703 0.0394926 16711680
0.273569 -0.0439714 0.0416794 16711680
0.270582 -0.0427255 0.0381452 16711680
0.27162 -0.0416875 0.0393486 16711680
0.271182 -0.0410999 0.0388244 16711680
0.271079 -0.0404103 0.038692 16711680
0.270484 -0.0398696 0.0379832 16711680
0.270038 -0.0392831 0.0374491 16711680
0.270068 -0.0385528 0.037472 16711680
0.26972 -0.0379362 0.0370528 16711680
0.269729 -0.0372122 0.037051 16711680
0.269597 -0.0365303 0.0368851 16711680
0.26994 -0.0357068 0.0372744 16711680
0.269881 -0.0350035 0.0371937 16711680
0.27018 -0.0341938 0.0375319 16711680
0.270272 -0.0334457 0.037629 16711680
0.270207 -0.0327447 0.0375407 16711680
0.270359 -0.0319795 0.0377072 16711680
0.27036 -0.0312591 0.0376967 16711680
0.271095 -0.0303234 0.0385455 16711680
0.272732 -0.0291242 0.0404522 16711680
0.272773 -0.0283943 0.040488 16711680
0.272377 -0.0277917 0.0400126 16711680
0.272111 -0.027151 0.0396891 16711680
0.271838 -0.026512 0.0393578 16711680
0.271278 -0.0259557 0.0386903 16711680
0.271277 -0.0252375 0.0386772 16711680
0.270859 -0.0246393 0.0381762 16711680
0.27053 -0.0240154 0.0377783 16711680
0.270167 -0.0234007 0.037341 16711680
0.269739 -0.0228042 0.0368279 16711680
0.269709 -0.0220936 0.0367812 16711680
0.269225 -0.0215123 0.0362022 16711680
0.269087 -0.0208321 0.0360293 16711680
0.268815 -0.02019 0.0356982 16711680
0.26853 -0.0195509 0.0353538 16711680
0.268344 -0.018884 0.0351233 16711680
0.267367 -0.0184391 0.033967 16711680
0.288409 -0.0111143 0.0586015 16711680
0.288353 -0.0104249 0.0585244 16711680
0.28789 -0.00984874 0.0579699 16711680
0.28803 -0.00910461 0.0581229 16711680
0.287675 -0.0084978 0.0576955 16711680
0.28758 -0.00781891 0.0575725 16711680
0.287385 -0.00716749 0.0573325 16711680
0.287249 -0.0064998 0.0571612 16711680
0.287192 -0.00581011 0.0570835 16711680
0.287241 -0.00509176 0.0571289 16711680
0.287119 -0.00441983 0.0569752 16711680
0.28687 -0.00378257 0.0566721 16711680
0.286381 -0.00321025 0.0560875 16711680
0.285315 -0.00279328 0.054827 16711680
0.284333 -0.00235254 0.053664 16711680
0.283234 -0.00194183 0.0523645 16711680
0.282677 -0.00138414 0.0517005 16711680
0.277149 0.00353035 0.0451192 16711680
0.275158 0.00372005 0.0427734 16711680
0.273508 0.00400153 0.0408281 16711680
0.272069 0.00434017 0.0391304 16711680
0.27064 0.00468323 0.037444 16711680
0.26997 0.0052245 0.0366471 16711680
0.270285 0.00602055 0.0370042 16711680
0.270661 0.00683185 0.0374335 16711680
0.270159 0.00741741 0.036834 16711680
0.270072 0.0081096 0.0367204 16711680
0.269959 0.00879511 0.036576 16711680
0.270226 0.00957754 0.0368778 16711680
0.270002 0.010235 0.0366043 16711680
0.269822 0.0109035 0.0363814 16711680
0.268358 0.0112483 0.0346538 16711680
0.267187 0.0116687 0.0332696 16711680
0.267335 0.0124218 0.0334318 16711680
0.267472 0.0131716 0.0335807 16711680
0.267313 0.0138474 0.0333829 16711680
0.267323 0.0145654 0.0333834 16711680
0.266961 0.0151909 0.0329475 16711680
0.267132 0.0159488 0.0331365 16711680
0.267291 0.0167033 0.0333114 16711680
0.268291 0.0176646 0.0344726 16711680
0.269748 0.0187364 0.0361693 16711680
0.270335 0.0195931 0.0368456 16711680
0.270306 0.0202988 0.0368004 16711680
0.270131 0.0209689 0.0365841 16711680
0.270034 0.0216578 0.0364585 16711680
0.26987 0.0223307 0.0362546 16711680
0.269661 0.0229929 0.0359982 16711680
0.269519 0.0236715 0.0358212 16711680
0.269161 0.0242983 0.0353899 16711680
0.269006 0.024974 0.0351968 16711680
0.268965 0.0256771 0.0351379 16711680
0.269852 0.0266007 0.0361663 16711680
0.269784 0.0272965 0.0360745 16711680
0.268261 0.0276485 0.0342777 16711680
0.267742 0.0282391 0.0336576 16711680
0.267537 0.0289041 0.0334059 16711680
0.267982 0.0297217 0.0339167 16711680
0.267672 0.0303621 0.033542 16711680
0.268224 0.0312035 0.0341774 16711680
0.269382 0.032185 0.0355247 16711680
0.270524 0.0331609 0.0368519 16711680
0.269805 0.0337055 0.0359973 16711680
0.269228 0.0342839 0.0353098 16711680
0.268184 0.0347557 0.0340738 16711680
0.275406 -0.0500542 0.0428481 16711680
0.274027 -0.049767 0.0412192 16711680
0.27318 -0.0493113 0.0402145 16711680
0.273636 -0.0484477 0.0407374 16711680
0.273887 -0.0476485 0.0410206 16711680
0.273013 -0.0471999 0.0399834 16711680
0.272013 -0.0467888 0.0388001 16711680
0.271479 -0.0462324 0.0381624 16711680
0.272758 -0.0451159 0.0396494 16711680
0.274796 -0.0437674 0.0420272 16711680
0.271501 -0.0426176 0.0381287 16711680
0.272473 -0.0415998 0.0392563 16711680
0.272098 -0.0409933 0.0388055 16711680
0.271615 -0.0404195 0.038227 16711680
0.271127 -0.0398465 0.0376428 16711680
0.270849 -0.0392094 0.0373054 16711680
0.270808 -0.0385004 0.0372462 16711680
0.270582 -0.0378472 0.0369695 16711680
0.270587 -0.0371247 0.0369632 16711680
0.270647 -0.0363856 0.0370221 16711680
0.270774 -0.0356267 0.0371591 16711680
0.270844 -0.034885 0.0372303 16711680
0.270878 -0.0341544 0.0372578 16711680
0.270987 -0.0334015 0.0373744 16711680
0.270844 -0.0327236 0.037195 16711680
0.270945 -0.0319735 0.0373019 16711680
0.271138 -0.0311967 0.0375162 16711680
0.273371 -0.0298206 0.0401231 16711680
0.273577 -0.0290421 0.0403531 16711680
0.273408 -0.0283736 0.0401435 16711680
0.272903 -0.027803 0.0395395 16711680
0.273036 -0.0270462 0.0396838 16711680
0.272894 -0.0263695 0.0395054 16711680
0.272866 -0.0256598 0.0394605 16711680
0.272409 -0.0250738 0.0389135 16711680
0.271685 -0.0245644 0.038053 16711680
0.271377 -0.0239347 0.0376794 16711680
0.270836 -0.023371 0.0370344 16711680
0.270448 -0.0227634 0.036567 16711680
0.270288 -0.02209 0.0363677 16711680
0.269839 -0.0214987 0.0358303 16711680
0.269713 -0.0208154 0.0356699 16711680
0.269488 -0.02016 0.0353943 16711680
0.269181 -0.0195274 0.035023 16711680
0.288987 -0.0111084 0.0582066 16711680
0.288944 -0.0104153 0.0581448 16711680
0.288621 -0.00980014 0.0577551 16711680
0.288848 -0.0090321 0.0580094 16711680
0.288727 -0.00836074 0.0578563 16711680
0.288783 -0.00764039 0.0579107 16711680
0.288605 -0.00698468 0.057691 16711680
0.288341 -0.00635251 0.0573699 16711680
0.287879 -0.00577435 0.0568169 16711680
0.287872 -0.00507131 0.0567971 16711680
0.287633 -0.00443149 0.0565058 16711680
0.287444 -0.00377798 0.0562725 16711680
0.286912 -0.00321734 0.0556372 16711680
0.285869 -0.00279433 0.0544027 16711680
0.284636 -0.00242132 0.0529448 16711680
0.283751 -0.00195292 0.0518956 16711680
0.28336 -0.00135097 0.0514246 16711680
0.283373 -0.000639886 0.0514294 16711680
0.282541 -0.000155151 0.0504411 16711680
0.281192 0.00302684 0.048802 16711680
0.279659 0.00333193 0.0469924 16711680
0.277912 0.00358292 0.044932 16711680
0.276073 0.00381213 0.0427634 16711680
0.274428 0.00409436 0.0408218 16711680
0.272885 0.00440547 0.0390005 16711680
0.271447 0.00474566 0.0373014 16711680
0.270916 0.00532266 0.0366673 16711680
0.271972 0.00630984 0.0378947 16711680
0.271406 0.00687802 0.0372195 16711680
0.27067 0.00740305 0.0363438 16711680
0.270606 0.0081014 0.0362583 16711680
0.270497 0.00878784 0.036118 16711680
0.270744 0.0095652 0.0363967 16711680
0.270826 0.0103002 0.0364813 16711680
0.270893 0.0110314 0.0365497 16711680
0.270278 0.0115897 0.0358155 16711680
0.268783 0.0119276 0.0340508 16711680
0.268725 0.012628 0.0339707 16711680
0.268561 0.0133021 0.0337672 16711680
0.268494 0.0140004 0.0336769 16711680
0.268405 0.0146934 0.0335617 16711680
0.269186 0.0156023 0.0344665 16711680
0.27065 0.0166793 0.0361735 16711680
0.27159 0.0176247 0.0372653 16711680
0.271406 0.0182918 0.037038 16711680
0.271436 0.0190116 0.0370611 16711680
0.271072 0.019635 0.0366232 16711680
0.271023 0.0203356 0.0365546 16711680
0.270739 0.0209788 0.0362096 16711680
0.270625 0.0216637 0.036064 16711680
0.270438 0.0223311 0.035834 16711680
0.27022 0.022991 0.0355666 16711680
0.270039 0.0236601 0.0353428 16711680
0.269633 0.0242754 0.0348554 16711680
0.269531 0.0249639 0.0347246 16711680
0.269389 0.0256428 0.0345465 16711680
0.270403 0.0265967 0.0357246 16711680
0.27131 0.027524 0.0367783 16711680
0.270099 0.0279489 0.035346 16711680
0.268544 0.0282944 0.0335102 16711680
0.268625 0.0290263 0.0335933 16711680
0.26886 0.0297942 0.0338576 16711680
0.268969 0.0305323 0.0339741 16711680
0.268882 0.0312244 0.0338607 16711680
0.269785 0.0321468 0.03491 16711680
0.271164 0.0331779 0.0365173 16711680
0.271255 0.0339096 0.0366132 16711680
0.270652 0.0344811 0.0358937 16711680
0.269702 0.0349738 0.0347675 16711680
0.269575 0.0356561 0.0346074 16711680
0.277737 -0.0509358 0.0445166 16711680
0.277207 -0.0503841 0.0438828 16711680
0.276239 -0.0499697 0.0427344 16711680
0.275023 -0.0496316 0.0412959 16711680
0.274047 -0.0492167 0.0401393 16711680
0.274492 -0.0483566 0.04065 16711680
0.274557 -0.0476157 0.0407149 16711680
0.273791 -0.0471335 0.0398041 16711680
0.272967 -0.0466685 0.038825 16711680
0.2726 -0.0460608 0.0383828 16711680
0.273471 -0.0450701 0.0393938 16711680
0.275859 -0.0436137 0.0421836 16711680
0.272334 -0.0425358 0.0380126 16711680
0.273197 -0.0415512 0.0390139 16711680
0.272945 -0.0409075 0.0387067 16711680
0.272464 -0.0403333 0.0381303 16711680
0.27189 -0.0397867 0.0374447 16711680
0.271855 -0.0390762 0.0373921 16711680
0.27157 -0.0384414 0.0370457 16711680
0.271438 -0.0377602 0.0368792 16711680
0.271363 -0.0370616 0.0367801 16711680
0.271541 -0.0362875 0.0369766 16711680
0.271471 -0.0355875 0.0368837 16711680
0.271698 -0.0347992 0.0371382 16711680
0.271634 -0.034098 0.0370511 16711680
0.271754 -0.0333419 0.0371811 16711680
0.271569 -0.0326767 0.0369518 16711680
0.271756 -0.0319012 0.03716 16711680
0.2739 -0.0305495 0.0396644 16711680
0.274523 -0.0296481 0.0403839 16711680
0.274243 -0.0290124 0.0400442 16711680
0.273945 -0.0283818 0.0396827 16711680
0.273379 -0.0278291 0.0390072 16711680
0.273618 -0.0270413 0.039276 16711680
0.273633 -0.026319 0.0392821 16711680
0.273871 -0.025532 0.0395504 16711680
0.273643 -0.0248806 0.0392704 16711680
0.273722 -0.02414 0.0393524 16711680
0.272898 -0.0236598 0.0383729 16711680
0.271656 -0.0232982 0.0369043 16711680
0.271383 -0.0226576 0.0365723 16711680
0.270982 -0.0220537 0.0360891 16711680
0.270654 -0.0214281 0.0356927 16711680
0.270761 -0.0206784 0.0358076 16711680
0.270256 -0.0201029 0.0352021 16711680
0.283165 -0.0136036 0.0503114 16711680
0.289145 -0.0112197 0.0573205 16711680
0.28946 -0.0104265 0.0576783 16711680
0.289452 -0.00972375 0.0576574 16711680
0.289503 -0.00900468 0.0577059 16711680
0.289374 -0.00833535 0.0575444 16711680
0.289301 -0.00765088 0.0574468 16711680
0.289256 -0.00695869 0.0573823 16711680
0.289085 -0.00630108 0.0571703 16711680
0.288625 -0.00572249 0.0566194 16711680
0.288243 -0.00512207 0.0561599 16711680
0.288064 -0.00446597 0.0559381 16711680
0.287766 -0.00384191 0.0555775 16711680
0.28747 -0.00321716 0.0552185 16711680
0.286408 -0.00279948 0.0539604 16711680
0.285105 -0.00244549 0.0524195 16711680
0.284222 -0.00197667 0.0513716 16711680
0.284556 -0.00117967 0.0517523 16711680
0.284117 -0.000590414 0.0512255 16711680
0.2833 -0.000101775 0.0502547 16711680
0.283514 0.00207746 0.0504719 16711680
0.282931 0.00263032 0.0497761 16711680
0.281876 0.00305966 0.048527 16711680
0.280421 0.00338489 0.0468072 16711680
0.279188 0.0037702 0.0453477 16711680
0.27705 0.00392041 0.0428262 16711680
0.275204 0.00414956 0.0406466 16711680
0.273496 0.00441727 0.0386298 16711680
0.272268 0.00481179 0.0371763 16711680
0.271852 0.00541851 0.0366774 16711680
0.2731 0.00645509 0.0381311 16711680
0.272153 0.00692469 0.0370079 16711680
0.271251 0.00740704 0.0359375 16711680
0.271214 0.00811204 0.0358826 16711680
0.271057 0.00878635 0.0356869 16711680
0.271236 0.00954637 0.0358857 16711680
0.271348 0.0102891 0.0360061 16711680
0.271702 0.0110928 0.0364101 16711680
0.271458 0.0117448 0.0361124 16711680
0.271272 0.0124117 0.0358827 16711680
0.270853 0.0130202 0.0353791 16711680
0.270363 0.0136115 0.0347927 16711680
0.271605 0.014636 0.0362399 16711680
0.272692 0.0156202 0.0375056 16711680
0.272691 0.0163322 0.0374924 16711680
0.272704 0.0170479 0.0374975 16711680
0.272511 0.0177124 0.0372591 16711680
0.272187 0.0183447 0.0368668 16711680
0.272072 0.0190288 0.0367205 16711680
0.271657 0.0196396 0.0362226 16711680
0.271617 0.0203424 0.0361644 16711680
0.271288 0.0209747 0.0357668 16711680
0.271147 0.0216531 0.0355901 16711680
0.270973 0.0223234 0.035374 16711680
0.270674 0.0229639 0.0350121 16711680
0.270611 0.0236614 0.0349268 16711680
0.270199 0.024275 0.0344307 16711680
0.270046 0.0249513 0.0342401 16711680
0.269883 0.0256253 0.0340376 16711680
0.270595 0.0265076 0.0348625 16711680
0.272233 0.0276085 0.0367751 16711680
0.269019 0.0289854 0.0329665 16711680
0.269556 0.0298243 0.0335859 16711680
0.269972 0.0306341 0.0340636 16711680
0.269685 0.0312795 0.0337158 16711680
0.270283 0.0321305 0.0344063 16711680
0.271522 0.0331295 0.0358509 16711680
0.272648 0.0341005 0.037163 16711680
0.271657 0.0345819 0.035987 16711680
0.270626 0.0350558 0.0347656 16711680
0.269287 0.0354602 0.0331807 16711680
0.278453 -0.0516065 0.0442787 16711680
0.278269 -0.0509458 0.0440512 16711680
0.277848 -0.0503597 0.0435452 16711680
0.277358 -0.0497949 0.042958 16711680
0.276309 -0.0494047 0.0417153 16711680
0.275067 -0.0490741 0.0402442 16711680
0.27486 -0.0484181 0.0399894 16711680
0.275187 -0.0475952 0.0403628 16711680
0.274582 -0.0470631 0.0396404 16711680
0.274028 -0.0465146 0.0389775 16711680
0.273784 -0.0458693 0.038679 16711680
0.274391 -0.0449604 0.0393814 16711680
0.276815 -0.0434926 0.0422169 16711680
0.273177 -0.0424508 0.0379089 16711680
0.273739 -0.0415582 0.0385578 16711680
0.273687 -0.0408539 0.0384842 16711680
0.273307 -0.040249 0.0380263 16711680
0.272771 -0.0396909 0.0373858 16711680
0.272796 -0.0389626 0.0374037 16711680
0.272329 -0.0383831 0.0368431 16711680
0.272443 -0.0376278 0.036966 16711680
0.27225 -0.0369651 0.0367277 16711680
0.272513 -0.0361657 0.0370245 16711680
0.272206 -0.035537 0.0366528 16711680
0.27239 -0.0347615 0.0368578 16711680
0.272243 -0.0340852 0.0366727 16711680
0.272414 -0.0333141 0.036862 16711680
0.272364 -0.0326089 0.0367918 16711680
0.274737 -0.0311873 0.0395685 16711680
0.275592 -0.030217 0.0405613 16711680
0.275262 -0.0295966 0.0401626 16711680
0.274879 -0.0289914 0.0397006 16711680
0.274503 -0.0283836 0.0392479 16711680
0.274011 -0.0278096 0.0386577 16711680
0.273944 -0.0271108 0.038568 16711680
0.274078 -0.0263538 0.0387138 16711680
0.274392 -0.0255447 0.0390717 16711680
0.274506 -0.0247943 0.0391936 16711680
0.274666 -0.0240308 0.0393698 16711680
0.274605 -0.0233313 0.0392866 16711680
0.274304 -0.0227003 0.0389225 16711680
0.273065 -0.0223381 0.0374552 16711680
0.271969 -0.0219332 0.0361562 16711680
0.271754 -0.021276 0.0358914 16711680
0.271682 -0.0205776 0.0357962 16711680
0.284303 -0.0141505 0.05058 16711680
0.2837 -0.0136105 0.0498599 16711680
0.288005 -0.0116949 0.0549072 16711680
0.289869 -0.0104676 0.0570859 16711680
0.289992 -0.00972801 0.05722 16711680
0.290097 -0.00899395 0.0573317 16711680
0.289959 -0.0083276 0.0571578 16711680
0.289783 -0.00767136 0.0569406 16711680
0.289815 -0.00695795 0.0569663 16711680
0.289804 -0.00625613 0.0569429 16711680
0.289427 -0.00565517 0.0564883 16711680
0.288711 -0.00514638 0.0556362 16711680
0.288483 -0.00450364 0.0553567 16711680
0.288199 -0.00387576 0.055012 16711680
0.287838 -0.00326857 0.0545766 16711680
0.286797 -0.00284541 0.0533414 16711680
0.285508 -0.00248766 0.0518159 16711680
0.284849 -0.00195849 0.0510302 16711680
0.285281 -0.00113499 0.051527 16711680
0.284819 -0.000552058 0.0509733 16711680
0.28383 -0.000109613 0.0497996 16711680
0.282832 0.00033173 0.0486153 16711680
0.28248 0.000946254 0.0481904 16711680
0.283505 0.00192678 0.0493842 16711680
0.284003 0.00276598 0.0499578 16711680
0.279782 0.00377855 0.0449632 16711680
0.277992 0.00401944 0.042848 16711680
0.276167 0.00425369 0.040692 16711680
0.274646 0.00456974 0.0388938 16711680
0.273167 0.0048984 0.0371435 16711680
0.273304 0.00564787 0.0372933 16711680
0.274083 0.0065631 0.0381984 16711680
0.272947 0.00698352 0.0368521 16711680
0.271859 0.00741753 0.0355611 16711680
0.271948 0.00815478 0.0356543 16711680
0.271685 0.00880215 0.0353352 16711680
0.271737 0.00952974 0.0353847 16711680
0.271923 0.0102911 0.0355915 16711680
0.272615 0.0111808 0.0363945 16711680
0.273442 0.0121033 0.0373552 16711680
0.272874 0.0126727 0.0366756 16711680
0.273084 0.0134387 0.036912 16711680
0.272589 0.0140274 0.0363189 16711680
0.273679 0.0150129 0.0375884 16711680
0.27377 0.0157478 0.0376846 16711680
0.273466 0.0163843 0.0373161 16711680
0.273439 0.0170897 0.0372728 16711680
0.273081 0.0177134 0.0368415 16711680
0.272746 0.0183429 0.0364358 16711680
0.272623 0.0190251 0.0362805 16711680
0.272203 0.0196345 0.0357753 16711680
0.272102 0.0203224 0.035646 16711680
0.271845 0.0209722 0.0353322 16711680
0.271682 0.0216453 0.0351299 16711680
0.271544 0.0223245 0.0349568 16711680
0.271295 0.0229769 0.0346526 16711680
0.271201 0.0236669 0.0345306 16711680
0.270787 0.0242801 0.0340333 16711680
0.270634 0.0249562 0.0338417 16711680
0.270395 0.0256119 0.0335493 16711680
0.27072 0.0264023 0.0339204 16711680
0.272905 0.0276337 0.0364782 16711680
0.27311 0.0283932 0.0367082 16711680
0.27151 0.0287263 0.0348165 16711680
0.269853 0.029048 0.0328565 16711680
0.270426 0.0298952 0.0335193 16711680
0.270894 0.030717 0.0340582 16711680
0.27075 0.0313955 0.0338788 16711680
0.270897 0.0321416 0.0340405 16711680
0.271809 0.0330646 0.0351013 16711680
0.273373 0.0341372 0.0369292 16711680
0.272759 0.0347053 0.036196 16711680
0.271885 0.0352146 0.0351568 16711680
0.270733 0.0356613 0.0337915 16711680
0.269014 0.0359801 0.0317597 16711680
0.278958 -0.0516247 0.0437828 16711680
0.278755 -0.0509701 0.0435321 16711680
0.278449 -0.0503477 0.0431614 16711680
0.278307 -0.0496734 0.0429831 16711680
0.277209 -0.0492992 0.0416812 16711680
0.275895 -0.0489914 0.0401249 16711680
0.275107 -0.0485173 0.039187 16711680
0.276101 -0.0474864 0.0403436 16711680
0.275848 -0.0468451 0.0400343 16711680
0.27519 -0.046329 0.0392504 16711680
0.274734 -0.0457499 0.0387022 16711680
0.275108 -0.0449134 0.0391309 16711680
0.277594 -0.0434263 0.0420412 16711680
0.273401 -0.0425554 0.0370783 16711680
0.274068 -0.0416306 0.0378501 16711680
0.27461 -0.0407446 0.0384763 16711680
0.274066 -0.04019 0.0378255 16711680
0.273601 -0.0396109 0.0372669 16711680
0.273709 -0.0388575 0.0373824 16711680
0.273396 -0.0382317 0.0370028 16711680
0.273479 -0.0374862 0.0370891 16711680
0.273195 -0.0368513 0.0367435 16711680
0.273316 -0.0360944 0.0368748 16711680
0.272908 -0.0354963 0.0363834 16711680
0.27319 -0.0346919 0.0367029 16711680
0.272929 -0.0340494 0.0363849 16711680
0.273082 -0.0332838 0.036553 16711680
0.274436 -0.0321623 0.0381342 16711680
0.276143 -0.0309384 0.0401303 16711680
0.276241 -0.030192 0.0402337 16711680
0.275899 -0.0295754 0.0398196 16711680
0.275425 -0.0289968 0.0392517 16711680
0.275131 -0.0283653 0.0388942 16711680
0.274686 -0.0277775 0.0383594 16711680
0.274642 -0.0270722 0.0382965 16711680
0.274571 -0.0263749 0.0382012 16711680
0.274876 -0.0255684 0.0385485 16711680
0.274969 -0.0248236 0.0386474 16711680
0.27529 -0.0240135 0.0390133 16711680
0.275722 -0.0231721 0.0395095 16711680
0.275564 -0.0225007 0.0393126 16711680
0.275585 -0.021778 0.0393257 16711680
0.275056 -0.0212124 0.0386931 16711680
0.273681 -0.0208877 0.0370648 16711680
0.272593 -0.0204795 0.0357741 16711680
0.271349 -0.0201142 0.0342994 16711680
0.28583 -0.0145866 0.0513074 16711680
0.28492 -0.0141341 0.050226 16711680
0.284381 -0.0135764 0.0495806 16711680
0.286885 -0.012165 0.052514 16711680
0.289611 -0.0106952 0.0557089 16711680
0.290092 -0.00985518 0.056264 16711680
0.290586 -0.00901276 0.0568328 16711680
0.290322 -0.00838116 0.0565114 16711680
0.290231 -0.00770146 0.0563934 16711680
0.290255 -0.0069899 0.0564109 16711680
0.290358 -0.00625682 0.0565208 16711680
0.289965 -0.00566009 0.0560479 16711680
0.289095 -0.00519389 0.0550128 16711680
0.28873 -0.00458822 0.0545732 16711680
0.288333 -0.00399107 0.054095 16711680
0.287933 -0.00339434 0.0536128 16711680
0.286916 -0.00296429 0.0524058 16711680
0.286013 -0.00250214 0.0513325 16711680
0.285624 -0.00190011 0.0508641 16711680
0.285944 -0.00110707 0.051229 16711680
0.285286 -0.000576735 0.0504447 16711680
0.284392 -0.000108868 0.0493821 16711680
0.283489 0.000357658 0.0483085 16711680
0.283017 0.000939935 0.0477413 16711680
0.283159 0.00168613 0.0478977 16711680
0.283819 0.00256911 0.0486629 16711680
0.282807 0.00300932 0.047461 16711680
0.280296 0.00376612 0.0444858 16711680
0.276897 0.00429726 0.0404649 16711680
0.275265 0.00458395 0.0385343 16711680
0.274074 0.00498739 0.0371219 16711680
0.27539 0.00604221 0.0386589 16711680
0.275113 0.00668314 0.0383209 16711680
0.273908 0.00708523 0.0368922 16711680
0.273311 0.00764534 0.0361789 16711680
0.272856 0.00824255 0.0356327 16711680
0.272754 0.00893044 0.035501 16711680
0.272692 0.00962874 0.0354173 16711680
0.273382 0.0105184 0.0362186 16711680
0.274549 0.0115277 0.03758 16711680
0.274443 0.0122134 0.0374444 16711680
0.274182 0.0128599 0.0371256 16711680
0.274112 0.0135549 0.0370324 16711680
0.273829 0.0141964 0.036688 16711680
0.27414 0.014987 0.0370439 16711680
0.27435 0.0157514 0.0372787 16711680
0.274093 0.0163996 0.0369657 16711680
0.274087 0.0171103 0.0369481 16711680
0.273649 0.0177138 0.0364207 16711680
0.27332 0.0183451 0.0360235 16711680
0.27313 0.0190105 0.0357878 16711680
0.272729 0.0196246 0.035305 16711680
0.27266 0.0203204 0.0352136 16711680
0.272428 0.0209762 0.0349286 16711680
0.272274 0.0216513 0.0347363 16711680
0.272136 0.0223306 0.0345639 16711680
0.271968 0.0230025 0.0343548 16711680
0.271798 0.023674 0.034143 16711680
0.271453 0.0243039 0.0337269 16711680
0.271419 0.0250083 0.033675 16711680
0.270989 0.0256184 0.0331584 16711680
0.271166 0.0263735 0.0333558 16711680
0.27309 0.0275433 0.035609 16711680
0.274391 0.0285627 0.0371288 16711680
0.271128 0.029927 0.0332561 16711680
0.271978 0.0308381 0.034245 16711680
0.271823 0.0315133 0.0340512 16711680
0.27169 0.0321939 0.0338836 16711680
0.272349 0.0330583 0.0346481 16711680
0.273935 0.0341362 0.0365038 16711680
0.274055 0.0348738 0.0366348 16711680
0.273317 0.0354137 0.0357554 16711680
0.271805 0.035777 0.0339646 16711680
0.270987 0.0363011 0.0329911 16711680
0.279775 -0.0522628 0.0436651 16711680
0.279555 -0.0516138 0.0433949 16711680
0.279332 -0.0509657 0.0431205 16711680
0.279032 -0.0503412 0.0427569 16711680
0.279193 -0.0495716 0.0429345 16711680
0.278132 -0.0491864 0.0416745 16711680
0.276877 -0.0488605 0.040187 16711680
0.275508 -0.0485687 0.0385644 16711680
0.277011 -0.0473783 0.0403218 16711680
0.277266 -0.046579 0.0406106 16711680
0.27636 -0.0461411 0.0395324 16711680
0.275549 -0.0456723 0.0385673 16711680
0.275855 -0.044857 0.0389161 16711680
0.278242 -0.0434001 0.041713 16711680
0.274002 -0.0425447 0.0366896 16711680
0.274173 -0.0417714 0.0368787 16711680
0.275137 -0.0407563 0.0380019 16711680
0.27474 -0.0401569 0.0375239 16711680
0.274643 -0.0394662 0.037398 16711680
0.274589 -0.0387624 0.0373226 16711680
0.274534 -0.0380587 0.0372472 16711680
0.274402 -0.0373785 0.03708 16711680
0.274329 -0.0366804 0.0369827 16711680
0.27422 -0.0359931 0.0368429 16711680
0.273906 -0.0353671 0.0364624 16711680
0.273988 -0.0346223 0.0365481 16711680
0.273865 -0.0339392 0.0363914 16711680
0.274574 -0.0330083 0.0372149 16711680
0.277033 -0.0315596 0.0400974 16711680
0.276911 -0.030878 0.0399429 16711680
0.27695 -0.0301491 0.0399774 16711680
0.27649 -0.0295672 0.0394249 16711680
0.276057 -0.0289769 0.038904 16711680
0.275865 -0.0283155 0.0386667 16711680
0.275411 -0.0277304 0.0381211 16711680
0.275292 -0.0270472 0.0379697 16711680
0.275167 -0.0263657 0.0378107 16711680
0.275427 -0.0255724 0.0381051 16711680
0.275442 -0.0248503 0.0381118 16711680
0.275748 -0.0240444 0.0384607 16711680
0.276205 -0.0231954 0.0389876 16711680
0.276208 -0.022478 0.0389791 16711680
0.276561 -0.0216598 0.0393845 16711680
0.276306 -0.0210165 0.0390725 16711680
0.276337 -0.0202914 0.0390974 16711680
0.287475 -0.014988 0.0521746 16711680
0.286384 -0.0145882 0.0508789 16711680
0.285617 -0.0140955 0.0499653 16711680
0.285261 -0.0134863 0.0495355 16711680
0.286437 -0.0124471 0.0509086 16711680
0.289073 -0.0110015 0.0539999 16711680
0.28984 -0.0100808 0.0548928 16711680
0.290982 -0.00905719 0.0562255 16711680
0.290495 -0.00848743 0.0556414 16711680
0.290276 -0.00784287 0.0553728 16711680
0.290431 -0.00709495 0.0555438 16711680
0.290781 -0.00629342 0.0559453 16711680
0.290135 -0.00576651 0.0551729 16711680
0.28917 -0.00532585 0.0540265 16711680
0.288783 -0.00472611 0.0535598 16711680
0.288489 -0.00410053 0.0532026 16711680
0.28793 -0.00354674 0.0525335 16711680
0.287192 -0.00304094 0.0516531 16711680
0.286711 -0.00246453 0.0510757 16711680
0.286305 -0.00186723 0.0505871 16711680
0.286476 -0.00111413 0.0507778 16711680
0.285784 -0.000593364 0.0499512 16711680
0.284913 -0.000119269 0.0489156 16711680
0.284259 0.000413746 0.0481348 16711680
0.283673 0.000965506 0.0474331 16711680
0.283458 0.00161675 0.0471693 16711680
0.284456 0.00258964 0.0483335 16711680
0.279297 0.00406653 0.0422145 16711680
0.276027 0.00463521 0.038342 16711680
0.275096 0.005106 0.037235 16711680
0.276819 0.00626621 0.0392522 16711680
0.276469 0.00688794 0.0388298 16711680
0.275746 0.00741357 0.0379668 16711680
0.27503 0.00794211 0.0371131 16711680
0.275237 0.00870827 0.0373458 16711680
0.275254 0.00942525 0.037354 16711680
0.275402 0.0101758 0.0375177 16711680
0.27519 0.0108345 0.0372578 16711680
0.275306 0.0115763 0.0373824 16711680
0.275176 0.0122558 0.0372187 16711680
0.27506 0.0129388 0.0370705 16711680
0.274913 0.0136141 0.0368865 16711680
0.274748 0.0142852 0.0366819 16711680
0.27453 0.014943 0.036414 16711680
0.274827 0.0157295 0.0367527 16711680
0.274706 0.0164115 0.0365994 16711680
0.274621 0.0171024 0.0364879 16711680
0.274188 0.0177073 0.0359674 16711680
0.273908 0.0183505 0.0356264 16711680
0.2737 0.0190117 0.0353707 16711680
0.273294 0.0196242 0.0348806 16711680
0.273214 0.0203174 0.0347764 16711680
0.272988 0.0209747 0.0344987 16711680
0.272876 0.0216599 0.0343554 16711680
0.272723 0.0223355 0.034165 16711680
0.272548 0.0230057 0.0339478 16711680
0.272449 0.0236944 0.03382 16711680
0.272164 0.0243384 0.033473 16711680
0.272151 0.025048 0.0334474 16711680
0.271793 0.0256748 0.0330139 16711680
0.271901 0.0264133 0.0331303 16711680
0.273163 0.0274259 0.0346061 16711680
0.27513 0.0286037 0.036912 16711680
0.271735 0.0299362 0.0328804 16711680
0.272706 0.0308758 0.0340134 16711680
0.272831 0.0316163 0.0341491 16711680
0.272545 0.0322609 0.0338012 16711680
0.272967 0.0330702 0.0342876 16711680
0.274265 0.0340817 0.0358062 16711680
0.275176 0.0350018 0.0368685 16711680
0.274403 0.0355331 0.0359465 16711680
0.273388 0.03601 0.0347402 16711680
0.280415 -0.0522381 0.0433282 16711680
0.280089 -0.051623 0.0429323 16711680
0.279903 -0.0509631 0.0427018 16711680
0.279844 -0.0502626 0.0426219 16711680
0.279928 -0.0495175 0.0427088 16711680
0.279112 -0.0490553 0.0417366 16711680
0.277997 -0.0486863 0.0404115 16711680
0.276344 -0.0484837 0.0384545 16711680
0.278137 -0.047203 0.0405539 16711680
0.278174 -0.0464719 0.0405862 16711680
0.277224 -0.0460478 0.0394567 16711680
0.276465 -0.0455633 0.0385517 16711680
0.276829 -0.0447305 0.0389681 16711680
0.278947 -0.0433562 0.0414523 16711680
0.275517 -0.0415332 0.0373664 16711680
0.276363 -0.0405544 0.0383519 16711680
0.275516 -0.0400929 0.0373425 16711680
0.275868 -0.0392657 0.0377462 16711680
0.275545 -0.0386439 0.0373542 16711680
0.275811 -0.0378433 0.0376569 16711680
0.275286 -0.0372822 0.0370274 16711680
0.275342 -0.0365456 0.0370812 16711680
0.275146 -0.0358846 0.0368397 16711680
0.275244 -0.0351357 0.0369432 16711680
0.274934 -0.0345088 0.0365666 16711680
0.275298 -0.0336803 0.0369848 16711680
0.277521 -0.0322998 0.0395913 16711680
0.277905 -0.0314682 0.0400326 16711680
0.277511 -0.0308674 0.0395581 16711680
0.277456 -0.0301664 0.0394812 16711680
0.276912 -0.0296091 0.03883 16711680
0.276759 -0.0289367 0.0386379 16711680
0.276517 -0.02829 0.0383415 16711680
0.276213 -0.0276611 0.0379726 16711680
0.276174 -0.0269548 0.037915 16711680
0.275947 -0.026303 0.0376372 16711680
0.276085 -0.0255451 0.0377886 16711680
0.276007 -0.0248503 0.0376847 16711680
0.276219 -0.0240713 0.0379239 16711680
0.276486 -0.0232771 0.0382271 16711680
0.276672 -0.0225067 0.0384346 16711680
0.277163 -0.0216491 0.0390021 16711680
0.277324 -0.0208867 0.0391803 16711680
0.277341 -0.0201657 0.0391895 16711680
0.288232 -0.0149316 0.0519872 16711680
0.287068 -0.0145525 0.0506057 16711680
0.286479 -0.0140102 0.0498998 16711680
0.286319 -0.0133459 0.0497013 16711680
0.286786 -0.0125059 0.0502404 16711680
0.288941 -0.0111943 0.0527678 16711680
0.289239 -0.0104041 0.0531085 16711680
0.290674 -0.00929794 0.0547876 16711680
0.290523 -0.00863418 0.0545995 16711680
0.289962 -0.0080843 0.0539266 16711680
0.290458 -0.00724113 0.0545012 16711680
0.290885 -0.00641817 0.0549928 16711680
0.290261 -0.00588474 0.0542469 16711680
0.289356 -0.00542775 0.0531691 16711680
0.288965 -0.0048289 0.0526974 16711680
0.288853 -0.00415322 0.0525552 16711680
0.288131 -0.00364396 0.0516926 16711680
0.287567 -0.00309062 0.0510172 16711680
0.28734 -0.00244537 0.0507388 16711680
0.287125 -0.00179651 0.0504752 16711680
0.287085 -0.00110057 0.0504168 16711680
0.286379 -0.000583529 0.049574 16711680
0.285433 -0.000129849 0.0484484 16711680
0.284958 0.000450671 0.0478767 16711680
0.284257 0.000971913 0.0470406 16711680
0.28391 0.00158781 0.04662 16711680
0.284813 0.00253588 0.0476741 16711680
0.284684 0.00320938 0.0475106 16711680
0.281472 0.0037798 0.0437034 16711680
0.279968 0.00409505 0.0419202 16711680
0.278375 0.00438905 0.0400321 16711680
0.276858 0.00470477 0.0382324 16711680
0.276918 0.00543311 0.0382925 16711680
0.277924 0.00640678 0.0394675 16711680
0.277597 0.00703391 0.0390712 16711680
0.27667 0.00750634 0.0379672 16711680
0.276388 0.00814611 0.0376236 16711680
0.276299 0.00883591 0.0375084 16711680
0.276106 0.00949898 0.0372703 16711680
0.276082 0.0102051 0.0372299 16711680
0.275916 0.0108754 0.0370239 16711680
0.275917 0.011588 0.0370136 16711680
0.275718 0.0122499 0.0367681 16711680
0.275703 0.0129585 0.0367395 16711680
0.275733 0.0136784 0.0367644 16711680
0.27565 0.0143698 0.0366557 16711680
0.275191 0.0149668 0.0361031 16711680
0.27542 0.0157363 0.0363624 16711680
0.275418 0.016448 0.0363494 16711680
0.275352 0.0171436 0.0362608 16711680
0.274845 0.0177298 0.0356517 16711680
0.27438 0.0183271 0.0350924 16711680
0.274233 0.0190035 0.0349089 16711680
0.27386 0.0196243 0.0344582 16711680
0.273866 0.0203383 0.0344541 16711680
0.27356 0.0209761 0.0340829 16711680
0.273456 0.0216633 0.0339493 16711680
0.273304 0.022339 0.0337594 16711680
0.273187 0.0230232 0.0336101 16711680
0.273058 0.0237045 0.0334469 16711680
0.272975 0.0243971 0.0333383 16711680
0.272846 0.0250787 0.0331753 16711680
0.272657 0.025746 0.0329419 16711680
0.272732 0.0264763 0.0330191 16711680
0.273581 0.0273906 0.0340089 16711680
0.275786 0.0286252 0.0365977 16711680
0.275826 0.0293446 0.0366337 16711680
0.274111 0.0296503 0.0346014 16711680
0.2731 0.0301236 0.0333983 16711680
0.27353 0.030936 0.0338948 16711680
0.273794 0.0317089 0.0341949 16711680
0.273451 0.03234 0.0337801 16711680
0.27365 0.0330972 0.0340035 16711680
0.274708 0.034053 0.0352399 16711680
0.276413 0.0351568 0.0372399 16711680
0.275405 0.0356335 0.0360407 16711680
0.274472 0.0361288 0.0349301 16711680
0.281126 -0.0521911 0.0430743 16711680
0.28068 -0.0516139 0.0425379 16711680
0.280526 -0.0509439 0.0423447 16711680
0.281201 -0.0500117 0.043129 16711680
0.280748 -0.0494362 0.0425841 16711680
0.28007 -0.0489313 0.0417731 16711680
0.27887 -0.0485889 0.0403482 16711680
0.277052 -0.0484391 0.038193 16711680
0.278955 -0.0471233 0.0404258 16711680
0.278996 -0.0463912 0.040463 16711680
0.278145 -0.0459371 0.0394474 16711680
0.277632 -0.0453763 0.0388327 16711680
0.277607 -0.0446642 0.0387915 16711680
0.280495 -0.0430521 0.0421846 16711680
0.275985 -0.0422835 0.0368339 16711680
0.277295 -0.0411619 0.0383669 16711680
0.277579 -0.0403555 0.0386913 16711680
0.277155 -0.0397654 0.0381802 16711680
0.277096 -0.0390642 0.0380986 16711680
0.276769 -0.0384438 0.0377028 16711680
0.276912 -0.0376811 0.0378603 16711680
0.276407 -0.0371147 0.0372527 16711680
0.276422 -0.0363905 0.0372599 16711680
0.276168 -0.0357476 0.0369487 16711680
0.276332 -0.034979 0.0371307 16711680
0.275826 -0.0344109 0.0365238 16711680
0.276809 -0.0333983 0.037671 16711680
0.27911 -0.0319947 0.0403727 16711680
0.278573 -0.0314371 0.0397289 16711680
0.278116 -0.0308552 0.0391792 16711680
0.277788 -0.0302348 0.0387812 16711680
0.277574 -0.0295805 0.0385174 16711680
0.277503 -0.0288837 0.0384227 16711680
0.277211 -0.028252 0.0380667 16711680
0.276867 -0.0276351 0.03765 16711680
0.276845 -0.0269236 0.0376137 16711680
0.276664 -0.0262586 0.0373894 16711680
0.276777 -0.0255083 0.0375108 16711680
0.276553 -0.0248557 0.0372356 16711680
0.27675 -0.0240812 0.0374565 16711680
0.276856 -0.0233333 0.0375706 16711680
0.277148 -0.0225322 0.0379034 16711680
0.277598 -0.021686 0.0384237 16711680
0.277753 -0.0209254 0.0385947 16711680
0.277924 -0.0201604 0.0387853 16711680
0.27817 -0.0193742 0.0390651 16711680
0.277626 -0.0188133 0.0384121 16711680
0.289054 -0.0148567 0.0518775 16711680
0.287896 -0.0144763 0.0505017 16711680
0.287443 -0.0138958 0.0499561 16711680
0.28728 -0.0132329 0.0497532 16711680
0.287369 -0.0124992 0.0498469 16711680
0.288316 -0.0115255 0.0509524 16711680
0.288926 -0.0106474 0.0516605 16711680
0.290249 -0.00957131 0.0532109 16711680
0.290542 -0.00878379 0.0535448 16711680
0.289997 -0.00822896 0.0528914 16711680
0.290379 -0.00741693 0.0533319 16711680
0.290572 -0.00665796 0.0535483 16711680
0.290411 -0.00599682 0.0533468 16711680
0.289666 -0.00549567 0.0524572 16711680
0.28908 -0.00494993 0.0517559 16711680
0.289161 -0.00422153 0.0518403 16711680
0.288616 -0.00366381 0.0511864 16711680
0.288105 -0.00309595 0.0505738 16711680
0.287977 -0.00242421 0.0504109 16711680
0.287873 -0.0017454 0.0502782 16711680
0.287682 -0.00109038 0.0500413 16711680
0.286899 -0.00059399 0.0491077 16711680
0.285955 -0.000140011 0.0479829 16711680
0.285544 0.000457704 0.0474869 16711680
0.284881 0.000988781 0.0466939 16711680
0.284443 0.00158051 0.0461663 16711680
0.285371 0.00253522 0.0472505 16711680
0.28477 0.00308383 0.0465302 16711680
0.283169 0.00336942 0.0446311 16711680
0.281826 0.00372523 0.0430369 16711680
0.280424 0.004067 0.0413718 16711680
0.279347 0.0044958 0.0400903 16711680
0.279064 0.00513351 0.0397463 16711680
0.278709 0.00575262 0.0393167 16711680
0.278522 0.00641569 0.0390853 16711680
0.278134 0.00702682 0.0386159 16711680
0.277276 0.00751713 0.0375934 16711680
0.27697 0.0081507 0.0372214 16711680
0.276858 0.00883442 0.0370784 16711680
0.276662 0.00949669 0.0368364 16711680
0.276641 0.0102039 0.036801 16711680
0.276453 0.0108683 0.0365683 16711680
0.276431 0.0115751 0.0365307 16711680
0.276272 0.0122472 0.0363327 16711680
0.276273 0.0129597 0.0363224 16711680
0.27637 0.0136964 0.0364258 16711680
0.276709 0.0144939 0.0368159 16711680
0.276065 0.0150442 0.0360451 16711680
0.276059 0.0157548 0.0360268 16711680
0.27611 0.0164794 0.0360757 16711680
0.276045 0.0171752 0.0359885 16711680
0.275553 0.0177651 0.0353973 16711680
0.275053 0.0183537 0.0347965 16711680
0.274935 0.0190368 0.0346459 16711680
0.274525 0.0196485 0.0341516 16711680
0.274607 0.020381 0.0342375 16711680
0.274276 0.0210127 0.033837 16711680
0.274366 0.0217471 0.0339321 16711680
0.274059 0.0223847 0.0335588 16711680
0.274142 0.0231172 0.0336456 16711680
0.27378 0.023742 0.0332077 16711680
0.274016 0.0245114 0.0334756 16711680
0.273773 0.0251651 0.0331776 16711680
0.27404 0.0259412 0.033482 16711680
0.273781 0.0265915 0.0331663 16711680
0.274382 0.0274466 0.0338647 16711680
0.276196 0.0285884 0.0359941 16711680
0.276992 0.0294867 0.0369217 16711680
0.275753 0.0299039 0.035449 16711680
0.274009 0.0302041 0.0333806 16711680
0.274644 0.0310645 0.0341198 16711680
0.274934 0.031843 0.0344507 16711680
0.274969 0.0325617 0.0344812 16711680
0.274505 0.0331644 0.0339234 16711680
0.275237 0.0340446 0.0347767 16711680
0.277224 0.0352135 0.0371099 16711680
0.276793 0.0358229 0.0365913 16711680
0.275718 0.0362847 0.0353111 16711680
0.282827 -0.0525466 0.0440004 16711680
0.281839 -0.0521432 0.0428237 16711680
0.281266 -0.0516066 0.0421368 16711680
0.281204 -0.0509076 0.0420518 16711680
0.282307 -0.0498397 0.0433427 16711680
0.281647 -0.0493301 0.0425527 16711680
0.280946 -0.0488328 0.041714 16711680
0.279617 -0.0485314 0.0401355 16711680
0.277664 -0.048424 0.0378201 16711680
0.279684 -0.0470717 0.040192 16711680
0.279749 -0.0463322 0.0402576 16711680
0.279124 -0.0458077 0.0395089 16711680
0.278752 -0.0452039 0.0390589 16711680
