# .PCD v0.7 - Point Cloud Data file format
VERSION 0.7
FIELDS x y z rgb
SIZE 4 4 4 4
TYPE F F F F
COUNT 1 1 1 1
WIDTH 572
HEIGHT 1
VIEWPOINT 0 0 0 1 0 0 0
POINTS 572
DATA ascii
0.333727 -0.113333 0.0314078 16711680
0.333143 -0.112846 0.0306705 16711680
0.332771 -0.112274 0.0301975 16711680
0.332515 -0.111656 0.0298703 16711680
0.332003 -0.111138 0.0292226 16711680
0.331837 -0.110483 0.0290091 16711680
0.33156 -0.109872 0.0286561 16711680
0.331245 -0.109275 0.0282547 16711680
0.331035 -0.108637 0.0279862 16711680
0.330427 -0.108155 0.0272176 16711680
0.334171 -0.114098 0.0308461 16711680
0.33362 -0.113598 0.030149 16711680
0.333542 -0.112909 0.0300456 16711680
0.333225 -0.112315 0.0296413 16711680
0.333016 -0.111678 0.0293738 16711680
0.33256 -0.111138 0.0287962 16711680
0.332399 -0.110481 0.0285877 16711680
0.332119 -0.109871 0.0282309 16711680
0.331609 -0.109351 0.0275857 16711680
0.331449 -0.108694 0.0273783 16711680
0.330865 -0.108202 0.0266397 16711680
0.316856 -0.123458 0.00795722 16711680
0.317895 -0.122306 0.00925815 16711680
0.334542 -0.114172 0.0301872 16711680
0.334023 -0.11366 0.0295285 16711680
0.333807 -0.113025 0.0292517 16711680
0.333577 -0.112396 0.0289581 16711680
0.333644 -0.111649 0.0290364 16711680
0.333099 -0.111145 0.0283462 16711680
0.3329 -0.110503 0.0280908 16711680
0.332621 -0.109893 0.0277346 16711680
0.332012 -0.109413 0.0269635 16711680
0.331792 -0.108778 0.0266818 16711680
0.331382 -0.108218 0.0261604 16711680
0.321157 -0.121953 0.0122236 16711680
0.319326 -0.121958 0.00991309 16711680
0.335122 -0.114163 0.0297905 16711680
0.334802 -0.113571 0.029382 16711680
0.334573 -0.112942 0.0290886 16711680
0.334111 -0.112405 0.0285026 16711680
0.334238 -0.111634 0.028657 16711680
0.33375 -0.111108 0.0280379 16711680
0.333342 -0.110549 0.0275185 16711680
0.333055 -0.109942 0.0271528 16711680
0.332492 -0.109443 0.0264387 16711680
0.332338 -0.108783 0.0262398 16711680
0.332109 -0.108152 0.025947 16711680
0.321623 -0.122723 0.011672 16711680
0.321267 -0.122136 0.0112174 16711680
0.319599 -0.122076 0.00911117 16711680
0.334695 -0.115278 0.0281298 16711680
0.335651 -0.114173 0.0293297 16711680
0.335706 -0.113431 0.0293938 16711680
0.335329 -0.112862 0.0289135 16711680
0.334856 -0.11233 0.0283124 16711680
0.334716 -0.111666 0.0281307 16711680
0.334157 -0.111167 0.0274222 16711680
0.333621 -0.110659 0.0267414 16711680
0.33348 -0.109994 0.0265585 16711680
0.333154 -0.109402 0.0261433 16711680
0.333403 -0.108583 0.0264516 16711680
0.333537 -0.107809 0.026616 16711680
0.335132 -0.123267 0.0276041 16711680
0.324908 -0.124542 0.0146893 16711680
0.325 -0.123775 0.0148008 16711680
0.323385 -0.123701 0.0127586 16711680
0.322955 -0.123144 0.0122111 16711680
0.32218 -0.122727 0.011229 16711680
0.335953 -0.114276 0.0285814 16711680
0.33644 -0.11336 0.0291911 16711680
0.336044 -0.112799 0.0286868 16711680
0.335844 -0.112159 0.0284294 16711680
0.335614 -0.11153 0.0281349 16711680
0.334883 -0.1111 0.0272086 16711680
0.334688 -0.110457 0.0269575 16711680
0.334673 -0.109743 0.026933 16711680
0.335021 -0.108884 0.0273681 16711680
0.334728 -0.10828 0.026993 16711680
0.334742 -0.107554 0.0270061 16711680
0.325058 -0.152548 0.0139186 16711680
0.325112 -0.15179 0.0139811 16711680
0.317506 -0.130732 0.00422096 16711680
0.325893 -0.125099 0.0147953 16711680
0.324367 -0.124992 0.0128635 16711680
0.324075 -0.12438 0.0124902 16711680
0.323447 -0.123904 0.0116929 16711680
0.322711 -0.123472 0.0107585 16711680
0.322616 -0.122779 0.0106341 16711680
0.320768 -0.122793 0.00829589 16711680
0.331414 -0.117046 0.0217271 16711680
0.336224 -0.11439 0.0277956 16711680
0.337026 -0.113348 0.028803 16711680
0.336669 -0.112771 0.0283471 16711680
0.336705 -0.112037 0.0283875 16711680
0.336452 -0.111418 0.0280639 16711680
0.336046 -0.110859 0.0275462 16711680
0.336113 -0.110113 0.0276264 16711680
0.336145 -0.10938 0.0276622 16711680
0.335856 -0.108774 0.027293 16711680
0.335405 -0.108233 0.026718 16711680
0.335291 -0.107557 0.0265702 16711680
0.324712 -0.152946 0.0123333 16711680
0.324235 -0.152418 0.0117263 16711680
0.324589 -0.151528 0.0121682 16711680
0.326924 -0.149779 0.0151139 16711680
0.327903 -0.14862 0.0163468 16711680
0.321141 -0.132409 0.0076803 16711680
0.321393 -0.131571 0.00799358 16711680
0.321207 -0.130913 0.00775409 16711680
0.320904 -0.130304 0.00736678 16711680
0.319908 -0.129979 0.0061034 16711680
0.318001 -0.130026 0.00368893 16711680
0.326216 -0.125927 0.0140647 16711680
0.326246 -0.125185 0.0140983 16711680
0.325125 -0.124913 0.012676 16711680
0.324575 -0.124406 0.0119765 16711680
0.323919 -0.123942 0.011143 16711680
0.323327 -0.123451 0.01039 16711680
0.332828 -0.117426 0.022383 16711680
0.331946 -0.117057 0.0212628 16711680
0.33322 -0.115821 0.0228685 16711680
0.337463 -0.113396 0.0282253 16711680
0.337266 -0.112755 0.0279717 16711680
0.33742 -0.111974 0.0281619 16711680
0.337101 -0.111381 0.0277542 16711680
0.336753 -0.110799 0.0273103 16711680
0.336757 -0.110078 0.02731 16711680
0.336823 -0.109332 0.0273892 16711680
0.336408 -0.108776 0.0268601 16711680
0.335905 -0.108255 0.0262204 16711680
0.335773 -0.107587 0.0260479 16711680
0.32641 -0.153186 0.0133355 16711680
0.325405 -0.15289 0.01206 16711680
0.324628 -0.152493 0.011073 16711680
0.324414 -0.15185 0.0107979 16711680
0.325139 -0.150799 0.0117095 16711680
0.324385 -0.150391 0.0107523 16711680
0.324296 -0.149693 0.0106349 16711680
0.323867 -0.149143 0.0100871 16711680
0.330344 -0.144882 0.0182694 16711680
0.330352 -0.144147 0.0182759 16711680
0.323572 -0.132371 0.00960791 16711680
0.323315 -0.131744 0.0092783 16711680
0.32283 -0.131211 0.00866032 16711680
0.322752 -0.130509 0.00855803 16711680
0.321811 -0.130164 0.00736284 16711680
0.321244 -0.129663 0.00664079 16711680
0.321311 -0.128901 0.00672114 16711680
0.325055 -0.126634 0.0114515 16711680
0.325892 -0.12556 0.0125054 16711680
0.325357 -0.125048 0.011825 16711680
0.325243 -0.124364 0.0116755 16711680
0.324683 -0.123861 0.0109626 16711680
0.324495 -0.123206 0.0107201 16711680
0.323972 -0.122687 0.0100545 16711680
0.333307 -0.117458 0.0218527 16711680
0.332541 -0.117043 0.0208791 16711680
0.332503 -0.116334 0.0208267 16711680
0.337544 -0.113587 0.0271986 16711680
0.337808 -0.112761 0.0275278 16711680
0.33803 -0.111952 0.0278046 16711680
0.337683 -0.111371 0.0273601 16711680
0.337388 -0.110768 0.0269831 16711680
0.337331 -0.110071 0.0269065 16711680
0.337401 -0.109323 0.0269898 16711680
0.336901 -0.108801 0.0263537 16711680
0.33636 -0.108295 0.025664 16711680
0.336314 -0.107593 0.0256021 16711680
0.327646 -0.153627 0.0137557 16711680
0.327118 -0.153124 0.0130829 16711680
0.326397 -0.152703 0.0121667 16711680
0.325502 -0.152359 0.0110291 16711680
0.324945 -0.151865 0.010319 16711680
0.325583 -0.150852 0.0111219 16711680
0.324888 -0.150418 0.0102375 16711680
0.324697 -0.149765 0.00999153 16711680
0.324287 -0.149206 0.00946832 16711680
0.32385 -0.148659 0.00891066 16711680
0.326188 -0.146915 0.0118651 16711680
0.3268 -0.145917 0.0126354 16711680
0.325108 -0.142971 0.0104716 16711680
0.324094 -0.142668 0.00918257 16711680
0.323578 -0.142152 0.00852597 16711680
0.323609 -0.141404 0.00855958 16711680
0.323244 -0.140823 0.00809383 16711680
0.323265 -0.140079 0.00811553 16711680
0.323148 -0.139393 0.00796258 16711680
0.324246 -0.132325 0.00931275 16711680
0.323932 -0.131722 0.00891054 16711680
0.323549 -0.131147 0.00842094 16711680
0.323393 -0.130478 0.00821912 16711680
0.322491 -0.130117 0.00707245 16711680
0.322129 -0.129532 0.00660956 16711680
0.322061 -0.128826 0.00651884 16711680
0.323786 -0.127385 0.00869846 16711680
0.325764 -0.125843 0.0111978 16711680
0.325522 -0.125211 0.0108871 16711680
0.325596 -0.12445 0.0109766 16711680
0.325236 -0.123865 0.0105163 16711680
0.325308 -0.123105 0.0106022 16711680
0.324845 -0.122562 0.0100117 16711680
0.335369 -0.117574 0.0233314 16711680
0.333897 -0.117446 0.0214638 16711680
0.333176 -0.117012 0.0205456 16711680
0.332959 -0.116375 0.0202663 16711680
0.336335 -0.114296 0.0245367 16711680
0.337857 -0.112964 0.0264587 16711680
0.338507 -0.111983 0.0272782 16711680
0.338176 -0.111396 0.0268538 16711680
0.337813 -0.110821 0.0263898 16711680
0.337768 -0.110118 0.0263289 16711680
0.337879 -0.109354 0.0264647 16711680
0.337472 -0.108796 0.0259449 16711680
0.336773 -0.108352 0.0250559 16711680
0.336899 -0.107582 0.0252112 16711680
0.328883 -0.154066 0.0141796 16711680
0.328193 -0.153634 0.013301 16711680
0.327953 -0.153005 0.0129923 16711680
0.327457 -0.152487 0.0123595 16711680
0.326354 -0.152233 0.0109578 16711680
0.325484 -0.151877 0.00985062 16711680
0.326031 -0.150903 0.0105395 16711680
0.325684 -0.150318 0.0100954 16711680
0.32562 -0.14961 0.01001 16711680
0.325006 -0.14914 0.0092268 16711680
0.324615 -0.148573 0.00872767 16711680
0.325531 -0.147442 0.00988328 16711680
0.327342 -0.145927 0.0121737 16711680
0.326221 -0.145674 0.0107492 16711680
0.324323 -0.145754 0.00834012 16711680
0.326147 -0.144237 0.0106462 16711680
0.326059 -0.14354 0.01053 16711680
0.32555 -0.143023 0.0098815 16711680
0.324934 -0.142551 0.00909662 16711680
0.324441 -0.142026 0.0084666 16711680
0.324424 -0.141298 0.00844157 16711680
0.324155 -0.140677 0.00809622 16711680
0.324239 -0.139906 0.00819826 16711680
0.323978 -0.139281 0.00786304 16711680
0.324116 -0.138488 0.00803328 16711680
0.324846 -0.133044 0.00892782 16711680
0.324841 -0.132313 0.00891709 16711680
0.324577 -0.131689 0.00857818 16711680
0.324318 -0.131063 0.00824475 16711680
0.324081 -0.130428 0.00794089 16711680
0.323521 -0.129925 0.00722659 16711680
0.323676 -0.129128 0.00741827 16711680
0.323617 -0.128419 0.00733924 16711680
0.324308 -0.127403 0.00820971 16711680
0.32508 -0.126354 0.00918472 16711680
0.325524 -0.125441 0.0097419 16711680
0.32526 -0.124817 0.00940323 16711680
0.325398 -0.124029 0.00957334 16711680
0.325425 -0.123287 0.00960314 16711680
0.325165 -0.122661 0.00927031 16711680
0.335937 -0.11757 0.022916 16711680
0.334535 -0.117414 0.0211354 16711680
0.333847 -0.116967 0.0202593 16711680
0.333643 -0.116325 0.0199958 16711680
0.334811 -0.115132 0.0214714 16711680
0.33689 -0.113575 0.0241021 16711680
0.338279 -0.112298 0.0258573 16711680
0.338517 -0.111482 0.026155 16711680
0.33797 -0.11098 0.0254569 16711680
0.338011 -0.110243 0.0255055 16711680
0.338175 -0.109458 0.0257081 16711680
0.337863 -0.108862 0.0253084 16711680
0.337178 -0.108412 0.0244361 16711680
0.337413 -0.107599 0.0247293 16711680
0.329405 -0.154084 0.0136926 16711680
0.328786 -0.153622 0.0129026 16711680
0.328779 -0.15289 0.0128906 16711680
0.328365 -0.152337 0.0123608 16711680
0.327164 -0.152126 0.0108337 16711680
0.326179 -0.151821 0.0095793 16711680
0.326751 -0.150835 0.010301 16711680
0.326762 -0.150095 0.0103102 16711680
0.326515 -0.149467 0.00999355 16711680
0.325886 -0.149004 0.00919092 16711680
0.32555 -0.148413 0.00876069 16711680
0.325792 -0.147573 0.00906301 16711680
0.328134 -0.145829 0.0120289 16711680
0.327187 -0.145502 0.0108231 16711680
0.325365 -0.14555 0.00850809 16711680
0.326882 -0.144164 0.0104284 16711680
0.326962 -0.143396 0.0105249 16711680
0.326442 -0.142884 0.00986159 16711680
0.325759 -0.14244 0.00899148 16711680
0.325433 -0.141844 0.00857329 16711680
0.325224 -0.141198 0.008304 16711680
0.32522 -0.140465 0.00829458 16711680
0.325021 -0.139815 0.00803757 16711680
0.324868 -0.139145 0.00783896 16711680
0.324929 -0.138384 0.00791192 16711680
0.324695 -0.137748 0.00761163 16711680
0.324499 -0.137096 0.00735867 16711680
0.325468 -0.135955 0.00858331 16711680
0.326022 -0.134989 0.0092814 16711680
0.325582 -0.13444 0.00871909 16711680
0.325492 -0.133744 0.00860083 16711680
0.32546 -0.133024 0.00855613 16711680
0.325499 -0.132274 0.00860119 16711680
0.325235 -0.131651 0.00826097 16711680
0.325144 -0.130955 0.00814188 16711680
0.324888 -0.130328 0.0078125 16711680
0.32463 -0.129702 0.00748062 16711680
0.324622 -0.128972 0.00746632 16711680
0.324984 -0.128089 0.00792217 16711680
0.325031 -0.127337 0.00797749 16711680
0.325409 -0.12645 0.0084517 16711680
0.32567 -0.125612 0.00877869 16711680
0.32557 -0.12492 0.00864804 16711680
0.325618 -0.124169 0.00870454 16711680
0.325518 -0.123479 0.00857258 16711680
0.325365 -0.122809 0.00837433 16711680
0.33661 -0.117524 0.0226333 16711680
0.335301 -0.11733 0.0209687 16711680
0.334719 -0.116841 0.020227 16711680
0.334502 -0.116205 0.0199465 16711680
0.334546 -0.115463 0.0199982 16711680
0.336475 -0.113965 0.0224409 16711680
0.33745 -0.112852 0.0236735 16711680
0.338675 -0.111641 0.025223 16711680
0.338092 -0.111153 0.0244797 16711680
0.337947 -0.110491 0.0242908 16711680
0.33811 -0.109705 0.0244935 16711680
0.338118 -0.108981 0.0244997 16711680
0.337519 -0.108498 0.0237359 16711680
0.337802 -0.107665 0.0240905 16711680
0.330042 -0.154052 0.0133518 16711680
0.329369 -0.153613 0.0124936 16711680
0.329249 -0.152931 0.012337 16711680
0.329161 -0.152235 0.0122207 16711680
0.328259 -0.151895 0.0110714 16711680
0.327105 -0.151663 0.00960255 16711680
0.32727 -0.150856 0.00980747 16711680
0.327777 -0.1499 0.0104465 16711680
0.327255 -0.149391 0.00977981 16711680
0.32683 -0.14884 0.00923669 16711680
0.326705 -0.148158 0.00907385 16711680
0.326719 -0.147417 0.0090872 16711680
0.329006 -0.145696 0.011986 16711680
0.328089 -0.145357 0.0108178 16711680
0.326635 -0.145247 0.00896728 16711680
0.327611 -0.144094 0.0102028 16711680
0.327684 -0.143328 0.0102918 16711680
0.327138 -0.142828 0.00959337 16711680
0.326549 -0.142345 0.00884211 16711680
0.32638 -0.141682 0.0086236 16711680
0.326068 -0.14108 0.00822234 16711680
0.326112 -0.140327 0.00827432 16711680
0.325849 -0.139703 0.00793648 16711680
0.325969 -0.138918 0.00808454 16711680
0.325764 -0.13827 0.00782049 16711680
0.325807 -0.137518 0.00787055 16711680
0.325973 -0.136714 0.00807703 16711680
0.327997 -0.135131 0.0106423 16711680
0.327472 -0.134619 0.00997126 16711680
0.326501 -0.134292 0.00873458 16711680
0.326175 -0.133695 0.00831628 16711680
0.326106 -0.13299 0.00822484 16711680
0.326086 -0.132265 0.00819492 16711680
0.325875 -0.13162 0.00792301 16711680
0.325812 -0.130913 0.00783825 16711680
0.32561 -0.130263 0.00757861 16711680
0.325628 -0.129523 0.00759614 16711680
0.325499 -0.128843 0.00742865 16711680
0.32569 -0.128032 0.00766706 16711680
0.325861 -0.127229 0.00787997 16711680
0.326067 -0.126412 0.00813758 16711680
0.32621 -0.125622 0.00831473 16711680
0.326018 -0.124968 0.00806606 16711680
0.326106 -0.124201 0.00817406 16711680
0.325965 -0.123526 0.00799084 16711680
0.325543 -0.122966 0.0074513 16711680
0.338024 -0.117177 0.0232928 16711680
0.336187 -0.117198 0.0209562 16711680
0.335822 -0.116622 0.0204887 16711680
0.335384 -0.116074 0.0199286 16711680
0.33529 -0.115388 0.0198048 16711680
0.33605 -0.11436 0.0207651 16711680
0.336798 -0.113337 0.0217105 16711680
0.338314 -0.112008 0.0236318 16711680
0.33829 -0.111297 0.0235971 16711680
0.337792 -0.110774 0.0229601 16711680
0.338307 -0.109848 0.0236095 16711680
0.338334 -0.109117 0.0236402 16711680
0.337853 -0.108586 0.0230254 16711680
0.337794 -0.107889 0.0229464 16711680
0.331345 -0.15446 0.013862 16711680
0.330753 -0.153988 0.0131046 16711680
0.329952 -0.153605 0.0120827 16711680
0.329471 -0.153082 0.0114681 16711680
0.329917 -0.152152 0.0120301 16711680
0.32947 -0.151612 0.0114589 16711680
0.328225 -0.151421 0.00987256 16711680
0.327894 -0.15083 0.00944829 16711680
0.328593 -0.14979 0.0103323 16711680
0.328119 -0.149261 0.00972569 16711680
0.327955 -0.148597 0.00951302 16711680
0.32752 -0.14805 0.00895679 16711680
0.327913 -0.147145 0.00945163 16711680
0.329862 -0.14557 0.0119243 16711680
0.329039 -0.145191 0.0108742 16711680
0.327461 -0.145135 0.00886512 16711680
0.328235 -0.144068 0.00984454 16711680
0.328318 -0.143299 0.00994563 16711680
0.327909 -0.14274 0.00942159 16711680
0.327293 -0.142269 0.00863445 16711680
0.327153 -0.141593 0.00845349 16711680
0.326812 -0.141004 0.0080148 16711680
0.326817 -0.140268 0.00801742 16711680
0.326586 -0.139631 0.00771976 16711680
0.326622 -0.138881 0.00776112 16711680
0.326451 -0.138219 0.00753963 16711680
0.326538 -0.137448 0.00764692 16711680
0.327663 -0.136241 0.0090723 16711680
0.328641 -0.135097 0.010311 16711680
0.327961 -0.13465 0.00944233 16711680
0.326817 -0.134396 0.00798523 16711680
0.326646 -0.133734 0.00776267 16711680
0.326583 -0.133027 0.00767946 16711680
0.326494 -0.132331 0.00756133 16711680
0.326333 -0.131665 0.00735271 16711680
0.326305 -0.130943 0.00731289 16711680
0.3261 -0.130294 0.00704896 16711680
0.326161 -0.129536 0.00712252 16711680
0.326056 -0.128846 0.00698531 16711680
0.326271 -0.128025 0.00725317 16711680
0.326218 -0.127315 0.00718164 16711680
0.326509 -0.126463 0.00754809 16711680
0.326692 -0.125656 0.00777662 16711680
0.326572 -0.124973 0.00761974 16711680
0.326623 -0.12422 0.00768065 16711680
0.326485 -0.123544 0.00750124 16711680
0.326076 -0.122979 0.0069766 16711680
0.336733 -0.11648 0.0205076 16711680
0.336365 -0.115904 0.0200365 16711680
0.336344 -0.115189 0.0200049 16711680
0.336339 -0.114468 0.0199953 16711680
0.336542 -0.113663 0.0202491 16711680
0.337965 -0.112371 0.0220529 16711680
0.338525 -0.111425 0.0227604 16711680
0.337946 -0.110935 0.0220205 16711680
0.338299 -0.110073 0.0224649 16711680
0.338454 -0.10929 0.0226583 16711680
0.338251 -0.10865 0.0223957 16711680
0.338013 -0.108023 0.02209 16711680
0.331894 -0.154467 0.0134091 16711680
0.331299 -0.153995 0.0126495 16711680
0.330756 -0.1535 0.0119543 16711680
0.331242 -0.152552 0.0125687 16711680
0.330956 -0.151943 0.0122004 16711680
0.330423 -0.151442 0.0115187 16711680
0.329317 -0.151191 0.0101085 16711680
0.328598 -0.150769 0.00919044 16711680
0.329345 -0.149709 0.0101353 16711680
0.329116 -0.149074 0.00984061 16711680
0.328915 -0.148426 0.00958169 16711680
0.328445 -0.147895 0.00897968 16711680
0.329147 -0.146856 0.00986803 16711680
0.330932 -0.145352 0.012134 16711680
0.32879 -0.144073 0.00939798 16711680
0.328952 -0.143269 0.00960016 16711680
0.328561 -0.142702 0.00909913 16711680
0.328091 -0.142169 0.00849664 16711680
0.327817 -0.141551 0.00814509 16711680
0.327454 -0.140972 0.00767839 16711680
0.327385 -0.140266 0.00758731 16711680
0.327149 -0.139632 0.00728226 16711680
0.327155 -0.138895 0.00728691 16711680
0.326917 -0.138261 0.00697994 16711680
0.326904 -0.137532 0.00695968 16711680
0.327702 -0.136462 0.00796986 16711680
0.327878 -0.135655 0.00818992 16711680
0.326578 -0.135466 0.00653303 16711680
0.326408 -0.123806 0.00625229 16711680
0.337618 -0.116348 0.0204948 16711680
0.33729 -0.115757 0.0200738 16711680
0.337202 -0.115069 0.0199579 16711680
0.336951 -0.114447 0.0196337 16711680
0.337177 -0.113633 0.0199175 16711680
0.338246 -0.112482 0.0212731 16711680
0.338591 -0.111622 0.021709 16711680
0.338291 -0.11102 0.0213224 16711680
0.338271 -0.110306 0.0212939 16711680
0.33868 -0.109422 0.0218101 16711680
0.338628 -0.108721 0.0217402 16711680
0.338356 -0.108108 0.0213889 16711680
0.332582 -0.154412 0.0131357 16711680
0.331951 -0.153956 0.0123276 16711680
0.33166 -0.15335 0.0119531 16711680
0.332319 -0.152327 0.0127881 16711680
0.332023 -0.151722 0.0124084 16711680
0.331322 -0.151296 0.0115118 16711680
0.330045 -0.15112 0.00988269 16711680
0.32924 -0.150736 0.00885379 16711680
0.330047 -0.149649 0.00987709 16711680
0.32981 -0.149018 0.00957084 16711680
0.329654 -0.14835 0.00936913 16711680
0.329171 -0.147825 0.00875008 16711680
0.330963 -0.146315 0.0110271 16711680
0.331748 -0.145243 0.0120229 16711680
0.329432 -0.14404 0.00906205 16711680
0.329472 -0.143288 0.00911009 16711680
0.329124 -0.142703 0.00866294 16711680
0.32847 -0.142249 0.00782609 16711680
0.328207 -0.141626 0.00748706 16711680
0.32776 -0.141082 0.00691509 16711680
0.326615 -0.140834 0.00545323 16711680
0.33891 -0.114606 0.0209926 16711680
0.338803 -0.113927 0.0208521 16711680
0.338616 -0.113279 0.0206106 16711680
0.338914 -0.112437 0.0209869 16711680
0.339008 -0.111678 0.0211021 16711680
0.338759 -0.111056 0.0207818 16711680
0.338675 -0.110367 0.0206708 16711680
0.338934 -0.1081 0.0209885 16711680
0.333186 -0.154394 0.0127535 16711680
0.332766 -0.153845 0.0122153 16711680
0.332507 -0.153225 0.0118811 16711680
0.333124 -0.15222 0.0126634 16711680
0.332827 -0.151617 0.0122807 16711680
0.331914 -0.151283 0.0111146 16711680
0.330683 -0.151088 0.00954175 16711680
0.329965 -0.150666 0.00862229 16711680
0.330831 -0.149554 0.00972188 16711680
0.33073 -0.148863 0.00958979 16711680
0.330369 -0.148285 0.00912583 16711680
0.330005 -0.147708 0.00865853 16711680
0.332286 -0.145987 0.0115614 16711680
0.332389 -0.145209 0.0116884 16711680
0.329025 -0.144457 0.0073905 16711680
0.333781 -0.15438 0.0123603 16711680
0.333403 -0.153813 0.0118747 16711680
0.333671 -0.152961 0.012213 16711680
0.333966 -0.152098 0.0125862 16711680
0.333503 -0.151568 0.0119917 16711680
0.332586 -0.151236 0.0108181 16711680
0.331105 -0.15115 0.00892639 16711680
0.330836 -0.150533 0.00857878 16711680
0.331624 -0.149454 0.00958097 16711680
0.331523 -0.148764 0.00944769 16711680
0.33107 -0.148226 0.00886619 16711680
0.330602 -0.147694 0.00826621 16711680
0.332825 -0.145997 0.0110968 16711680
0.336654 -0.154823 0.0148834 16711680
0.334938 -0.154851 0.0126889 16711680
0.334379 -0.154365 0.0119718 16711680
0.334178 -0.15372 0.0117126 16711680
0.334528 -0.152832 0.0121545 16711680
0.334775 -0.151989 0.012467 16711680
0.334132 -0.151539 0.011642 16711680
0.333207 -0.151211 0.0104575 16711680
0.331665 -0.151152 0.00848532 16711680
0.331586 -0.150452 0.00838101 16711680
0.332053 -0.149513 0.0089736 16711680
0.331741 -0.148914 0.00857162 16711680
0.335673 -0.154775 0.0124761 16711680
0.334931 -0.15437 0.0115247 16711680
0.334825 -0.153683 0.011386 16711680
0.3353 -0.15274 0.0119886 16711680
0.335435 -0.151947 0.0121585 16711680
0.334831 -0.151479 0.0113822 16711680
0.336251 -0.154768 0.0120625 16711680
0.335589 -0.154328 0.0112127 16711680
0.335396 -0.15368 0.0109619 16711680
0.335988 -0.152685 0.0117155 16711680
0.335877 -0.152 0.0115703 16711680
0.336878 -0.154739 0.0117123 16711680
0.336014 -0.154389 0.010603 16711680
0.335782 -0.153758 0.0103017 16711680
