# .PCD v0.7 - Point Cloud Data file format
VERSION 0.7
FIELDS x y z rgb
SIZE 4 4 4 4
TYPE F F F F
COUNT 1 1 1 1
WIDTH 1294
HEIGHT 1
VIEWPOINT 0 0 0 1 0 0 0
POINTS 1294
DATA ascii
0.368248 0.144087 0.0252824 16711680
0.368052 0.144734 0.0250239 16711680
0.367926 0.145391 0.0248566 16711680
0.367617 0.146024 0.0244503 16711680
0.367335 0.146661 0.0240792 16711680
0.367236 0.147322 0.0239481 16711680
0.367017 0.147968 0.0236601 16711680
0.367064 0.148649 0.023719 16711680
0.367025 0.149318 0.0236659 16711680
0.367317 0.15003 0.0240469 16711680
0.367844 0.150772 0.0247347 16711680
0.367484 0.151399 0.0242614 16711680
0.366809 0.151987 0.0233765 16711680
0.366457 0.152617 0.0229136 16711680
0.366202 0.153259 0.0225774 16711680
0.365743 0.153876 0.0219755 16711680
0.36577 0.154554 0.0220083 16711680
0.365904 0.155245 0.0221815 16711680
0.36643 0.155984 0.022868 16711680
0.366771 0.1567 0.0233135 16711680
0.366642 0.157358 0.0231423 16711680
0.366088 0.157964 0.022415 16711680
0.365393 0.158555 0.021504 16711680
0.383066 0.0772047 0.0437555 16711680
0.381971 0.0776465 0.0423199 16711680
0.37937 0.0797988 0.0389061 16711680
0.379594 0.0805203 0.039198 16711680
0.379038 0.0810803 0.038468 16711680
0.378889 0.0817249 0.0382718 16711680
0.378605 0.0823418 0.0378984 16711680
0.379773 0.0832558 0.0394272 16711680
0.38048 0.084074 0.0403514 16711680
0.379466 0.0845418 0.0390207 16711680
0.378515 0.0850239 0.0377731 16711680
0.379395 0.0858762 0.0389247 16711680
0.379007 0.0864725 0.0384152 16711680
0.37872 0.0870896 0.0380378 16711680
0.378246 0.0876697 0.0374155 16711680
0.37776 0.088248 0.036777 16711680
0.377607 0.0888927 0.0365745 16711680
0.377495 0.0895458 0.0364269 16711680
0.377384 0.0901992 0.0362802 16711680
0.377419 0.090881 0.0363239 16711680
0.377267 0.0915263 0.036123 16711680
0.377315 0.0922106 0.0361845 16711680
0.377436 0.0929088 0.0363415 16711680
0.377577 0.0936105 0.0365242 16711680
0.377513 0.0942726 0.0364383 16711680
0.377482 0.0949412 0.0363965 16711680
0.376902 0.0955052 0.0356358 16711680
0.376526 0.0961084 0.0351408 16711680
0.376042 0.0966919 0.0345056 16711680
0.375614 0.0972864 0.0339426 16711680
0.37555 0.0979499 0.0338577 16711680
0.37602 0.098713 0.0344723 16711680
0.376992 0.0995685 0.0357438 16711680
0.376873 0.100221 0.0355864 16711680
0.37656 0.100837 0.0351741 16711680
0.3759 0.10139 0.0343087 16711680
0.37562 0.102013 0.0339392 16711680
0.375402 0.102648 0.0336528 16711680
0.375111 0.10327 0.0332693 16711680
0.375065 0.103937 0.0332074 16711680
0.374604 0.104528 0.0326018 16711680
0.374347 0.105157 0.0322641 16711680
0.3741 0.105788 0.0319388 16711680
0.37377 0.106405 0.0315046 16711680
0.373794 0.107085 0.031534 16711680
0.373574 0.107721 0.0312442 16711680
0.373558 0.108394 0.0312221 16711680
0.3734 0.109041 0.0310131 16711680
0.373391 0.109715 0.0309999 16711680
0.373327 0.110379 0.0309148 16711680
0.3731 0.111015 0.0306153 16711680
0.373169 0.111702 0.0307034 16711680
0.37335 0.112409 0.0309398 16711680
0.37376 0.113154 0.0314748 16711680
0.374335 0.113926 0.0322261 16711680
0.373617 0.114478 0.0312842 16711680
0.373152 0.115075 0.0306739 16711680
0.373478 0.115804 0.0310985 16711680
0.373411 0.116467 0.0310093 16711680
0.373039 0.11708 0.0305196 16711680
0.372444 0.117656 0.0297385 16711680
0.372634 0.118362 0.0299859 16711680
0.373799 0.119228 0.0315112 16711680
0.373838 0.119908 0.0315596 16711680
0.373649 0.120551 0.0313112 16711680
0.373114 0.121138 0.0306084 16711680
0.372015 0.121635 0.0291663 16711680
0.371632 0.122248 0.0286628 16711680
0.371858 0.122959 0.0289581 16711680
0.371728 0.123613 0.0287861 16711680
0.371403 0.124236 0.0283583 16711680
0.370997 0.124847 0.0278238 16711680
0.370965 0.125517 0.027781 16711680
0.373329 0.12656 0.0308756 16711680
0.372728 0.12714 0.0300865 16711680
0.371536 0.12763 0.0285236 16711680
0.370668 0.12817 0.027385 16711680
0.371444 0.128964 0.0283998 16711680
0.371603 0.129662 0.0286065 16711680
0.371549 0.130328 0.0285341 16711680
0.371684 0.131022 0.0287083 16711680
0.371261 0.131632 0.0281526 16711680
0.370534 0.132198 0.0271989 16711680
0.371038 0.132947 0.0278566 16711680
0.371066 0.133625 0.0278922 16711680
0.371233 0.134323 0.0281088 16711680
0.370939 0.134954 0.0277219 16711680
0.370616 0.135581 0.0272973 16711680
0.370265 0.136204 0.0268353 16711680
0.369637 0.136787 0.0260106 16711680
0.369309 0.137414 0.0255792 16711680
0.369161 0.138068 0.0253839 16711680
0.368532 0.138653 0.0245576 16711680
0.368298 0.139295 0.0242505 16711680
0.368252 0.139964 0.0241883 16711680
0.368373 0.140656 0.0243447 16711680
0.369086 0.14143 0.0252773 16711680
0.36962 0.142178 0.0259751 16711680
0.369283 0.142805 0.0255308 16711680
0.36916 0.143462 0.0253687 16711680
0.368704 0.144074 0.0247687 16711680
0.368395 0.144706 0.0243626 16711680
0.368318 0.14537 0.02426 16711680
0.368126 0.146019 0.0240061 16711680
0.367957 0.14667 0.0237834 16711680
0.367802 0.147324 0.0235785 16711680
0.367547 0.147965 0.0232421 16711680
0.367554 0.14864 0.0232495 16711680
0.367492 0.149307 0.0231674 16711680
0.367709 0.150009 0.0234494 16711680
0.368329 0.150763 0.0242603 16711680
0.368299 0.151433 0.0242188 16711680
0.368058 0.152076 0.0239009 16711680
0.367465 0.152674 0.0231225 16711680
0.36689 0.153276 0.0223668 16711680
0.366837 0.153944 0.0222965 16711680
0.366674 0.154597 0.0220805 16711680
0.366447 0.155244 0.0217812 16711680
0.366938 0.155978 0.0224224 16711680
0.367396 0.156708 0.023021 16711680
0.367413 0.157384 0.0230411 16711680
0.367178 0.158029 0.0227324 16711680
0.366745 0.15865 0.0221622 16711680
0.366083 0.159245 0.021293 16711680
0.383554 0.0771942 0.0432942 16711680
0.382466 0.0776374 0.0418667 16711680
0.379835 0.079108 0.0384113 16711680
0.380645 0.0799519 0.0394725 16711680
0.380201 0.0805342 0.0388882 16711680
0.379669 0.0810991 0.0381894 16711680
0.379429 0.0817247 0.0378733 16711680
0.379408 0.0823956 0.037845 16711680
0.381417 0.0834814 0.0404768 16711680
0.380962 0.0840622 0.0398787 16711680
0.379613 0.0844622 0.0381094 16711680
0.379342 0.0850818 0.0377514 16711680
0.380111 0.0859116 0.0387584 16711680
0.379719 0.0865071 0.038244 16711680
0.379325 0.0871026 0.0377258 16711680
0.378886 0.0876894 0.037148 16711680
0.378363 0.0882603 0.0364608 16711680
0.3782 0.088903 0.0362455 16711680
0.378058 0.0895502 0.0360585 16711680
0.377953 0.0902046 0.0359194 16711680
0.377969 0.0908826 0.0359377 16711680
0.377851 0.0915347 0.0357825 16711680
0.377949 0.0922284 0.0359085 16711680
0.377968 0.0929069 0.0359321 16711680
0.378083 0.0936038 0.036082 16711680
0.378236 0.0943076 0.0362812 16711680
0.378194 0.0949739 0.0362242 16711680
0.378156 0.0956408 0.0361727 16711680
0.378049 0.0962947 0.0360315 16711680
0.377456 0.0968567 0.0352521 16711680
0.377096 0.0974633 0.0347778 16711680
0.377128 0.0981441 0.0348192 16711680
0.377911 0.0989648 0.0358437 16711680
0.377526 0.0995671 0.0353379 16711680
0.377391 0.100216 0.0351589 16711680
0.376956 0.10081 0.0345867 16711680
0.376468 0.101394 0.033946 16711680
0.376297 0.102038 0.0337197 16711680
0.376012 0.10266 0.0333447 16711680
0.375699 0.103278 0.0329328 16711680
0.375668 0.103947 0.0328907 16711680
0.375188 0.104536 0.0322595 16711680
0.375081 0.105192 0.0321176 16711680
0.374805 0.105817 0.0317538 16711680
0.374526 0.106443 0.0313863 16711680
0.37452 0.107117 0.031377 16711680
0.374222 0.107739 0.0309843 16711680
0.374283 0.108426 0.0310637 16711680
0.374129 0.109074 0.0308596 16711680
0.37415 0.109753 0.0308856 16711680
0.374003 0.110402 0.0306917 16711680
0.373945 0.111067 0.0306143 16711680
0.373862 0.111728 0.030503 16711680
0.374027 0.112431 0.0307178 16711680
0.374267 0.113147 0.0310316 16711680
0.375013 0.113948 0.0320078 16711680
0.374545 0.114543 0.0313929 16711680
0.374083 0.115139 0.0307846 16711680
0.373982 0.115797 0.0306506 16711680
0.374178 0.116504 0.0309066 16711680
0.373704 0.1171 0.0302833 16711680
0.373168 0.117685 0.0295792 16711680
0.373251 0.118374 0.0296862 16711680
0.373066 0.119018 0.0294421 16711680
0.371936 0.119508 0.027958 16711680
0.370926 0.120019 0.0266321 16711680
0.371013 0.120709 0.0267442 16711680
0.370694 0.121334 0.0263242 16711680
0.369047 0.121746 0.024164 16711680
0.368968 0.12241 0.0240583 16711680
0.370171 0.123279 0.0256335 16711680
0.371916 0.124231 0.0279211 16711680
0.372372 0.124977 0.0285174 16711680
0.373811 0.125877 0.0304024 16711680
0.373973 0.126576 0.0306125 16711680
0.371043 0.128144 0.0267661 16711680
0.372045 0.128972 0.0280786 16711680
0.372069 0.12965 0.0281082 16711680
0.372204 0.130344 0.028284 16711680
0.372201 0.131018 0.0282779 16711680
0.371815 0.131633 0.0277698 16711680
0.371323 0.132234 0.0271232 16711680
0.371905 0.132994 0.0278841 16711680
0.371695 0.133637 0.0276076 16711680
0.372022 0.134359 0.0280347 16711680
0.371823 0.135003 0.0277715 16711680
0.371857 0.135682 0.0278144 16711680
0.371273 0.13627 0.0270472 16711680
0.370671 0.136857 0.0262558 16711680
0.370873 0.13756 0.0265194 16711680
0.370202 0.138138 0.0256376 16711680
0.369672 0.138737 0.0249406 16711680
0.369909 0.139445 0.0252506 16711680
0.370322 0.140177 0.0257903 16711680
0.37047 0.140872 0.025983 16711680
0.370468 0.141545 0.0259786 16711680
0.370297 0.142195 0.0257517 16711680
0.369813 0.142802 0.0251153 16711680
0.369336 0.143411 0.0244889 16711680
0.369068 0.144049 0.0241362 16711680
0.368789 0.144685 0.0237685 16711680
0.368845 0.145367 0.0238396 16711680
0.368723 0.146025 0.0236776 16711680
0.368668 0.146692 0.0236034 16711680
0.368386 0.147329 0.023232 16711680
0.368147 0.147972 0.0229176 16711680
0.368129 0.148644 0.022892 16711680
0.368037 0.149306 0.02277 16711680
0.368249 0.150008 0.0230463 16711680
0.368702 0.15074 0.0236377 16711680
0.36892 0.151442 0.023923 16711680
0.369052 0.152132 0.0240942 16711680
0.368552 0.152742 0.0234357 16711680
0.367833 0.153325 0.0224922 16711680
0.367892 0.154006 0.0225666 16711680
0.367458 0.154626 0.021996 16711680
0.367247 0.155274 0.0217178 16711680
0.36752 0.155982 0.0220746 16711680
0.367756 0.156685 0.0223825 16711680
0.368105 0.157401 0.0228373 16711680
0.368353 0.158104 0.0231608 16711680
0.367717 0.158701 0.0223254 16711680
0.366844 0.15927 0.0211785 16711680
0.384446 0.0765966 0.0433631 16711680
0.384073 0.0771903 0.0428731 16711680
0.382996 0.0776355 0.0414577 16711680
0.381535 0.0780016 0.0395396 16711680
0.379984 0.0783507 0.0375019 16711680
0.380528 0.07914 0.0382146 16711680
0.381395 0.0799958 0.0393517 16711680
0.38089 0.0805654 0.0386875 16711680
0.380286 0.081115 0.0378929 16711680
0.380275 0.0817877 0.0378768 16711680
0.381527 0.0827199 0.0395194 16711680
0.382477 0.083588 0.0407637 16711680
0.380097 0.0851255 0.037637 16711680
0.380884 0.0859587 0.0386682 16711680
0.380454 0.0865461 0.0381018 16711680
0.380194 0.0871682 0.0377593 16711680
0.379604 0.0877249 0.0369843 16711680
0.379091 0.0882974 0.0363085 16711680
0.379036 0.0889614 0.0362352 16711680
0.378735 0.089577 0.0358396 16711680
0.378618 0.0902289 0.0356842 16711680
0.378607 0.0909015 0.0356678 16711680
0.378562 0.0915676 0.0356073 16711680
0.378583 0.0922465 0.0356337 16711680
0.378511 0.0929072 0.0355374 16711680
0.378612 0.0936014 0.0356688 16711680
0.378699 0.0942926 0.0357821 16711680
0.378641 0.0949559 0.0357047 16711680
0.378757 0.0956521 0.0358549 16711680
0.378681 0.0963118 0.0357537 16711680
0.378751 0.0969991 0.0358442 16711680
0.37868 0.0976596 0.0357492 16711680
0.378436 0.0982878 0.0354283 16711680
0.378594 0.0989912 0.0356337 16711680
0.377968 0.0995484 0.0348103 16711680
0.37764 0.100162 0.0343784 16711680
0.377511 0.100812 0.0342079 16711680
0.377239 0.101437 0.0338501 16711680
0.377042 0.102075 0.0335898 16711680
0.376632 0.102674 0.0330497 16711680
0.376456 0.103317 0.0328171 16711680
0.376336 0.10397 0.0326579 16711680
0.37585 0.104557 0.0320197 16711680
0.375627 0.105192 0.0317246 16711680
0.375424 0.105831 0.0314566 16711680
0.375255 0.106476 0.0312343 16711680
0.375238 0.107148 0.0312098 16711680
0.374941 0.10777 0.0308188 16711680
0.375029 0.108461 0.0309329 16711680
0.374808 0.109097 0.0306417 16711680
0.374979 0.109802 0.0308638 16711680
0.374696 0.110428 0.0304916 16711680
0.374862 0.111132 0.0307068 16711680
0.374619 0.111765 0.0303866 16711680
0.374661 0.112447 0.030441 16711680
0.374809 0.113147 0.0306327 16711680
0.37553 0.113944 0.0315781 16711680
0.375669 0.114641 0.0317589 16711680
0.375113 0.115221 0.0310271 16711680
0.374481 0.115789 0.030197 16711680
0.374398 0.11645 0.0300858 16711680
0.374303 0.117109 0.0299604 16711680
0.373728 0.117688 0.0292041 16711680
0.388634 0.122147 0.0487624 16711680
0.388535 0.122794 0.0486314 16711680
0.388344 0.123427 0.0483788 16711680
0.38817 0.124063 0.0481495 16711680
0.387979 0.124695 0.0478966 16711680
0.387663 0.125309 0.0474799 16711680
0.387465 0.125941 0.0472188 16711680
0.374525 0.125904 0.0302315 16711680
0.374467 0.126568 0.0301529 16711680
0.371024 0.128057 0.0256293 16711680
0.371467 0.1288 0.0262096 16711680
0.372217 0.129589 0.0271922 16711680
0.372555 0.130315 0.0276343 16711680
0.372318 0.130953 0.0273221 16711680
0.372409 0.13164 0.0274401 16711680
0.372119 0.132271 0.027058 16711680
0.372749 0.133039 0.0278826 16711680
0.373034 0.133754 0.0282549 16711680
0.37272 0.134381 0.027841 16711680
0.372574 0.135033 0.0276479 16711680
0.372626 0.135714 0.027715 16711680
0.37206 0.136305 0.0269704 16711680
0.371981 0.136967 0.0268646 16711680
0.371978 0.13764 0.0268598 16711680
0.371492 0.138244 0.0262195 16711680
0.371533 0.138923 0.0262716 16711680
0.371488 0.139591 0.0262109 16711680
0.371489 0.140264 0.0262108 16711680
0.371131 0.140888 0.0257396 16711680
0.371086 0.141555 0.0256782 16711680
0.370787 0.142187 0.0252846 16711680
0.370196 0.142779 0.0245069 16711680
0.369731 0.14339 0.0238959 16711680
0.369615 0.144048 0.0237417 16711680
0.36944 0.144699 0.02351 16711680
0.369404 0.145368 0.0234609 16711680
0.369241 0.14602 0.0232457 16711680
0.369202 0.14669 0.0231928 16711680
0.368976 0.147334 0.0228945 16711680
0.368876 0.147995 0.0227619 16711680
0.368791 0.148658 0.0226485 16711680
0.368549 0.149301 0.0223285 16711680
0.368751 0.150001 0.0225928 16711680
0.368979 0.150705 0.0228904 16711680
0.369332 0.151424 0.023352 16711680
0.369834 0.152162 0.0240096 16711680
0.369375 0.152777 0.0234054 16711680
0.368856 0.153384 0.0227221 16711680
0.368867 0.154059 0.0227343 16711680
0.368357 0.15467 0.0220643 16711680
0.368118 0.155314 0.0217489 16711680
0.368111 0.155987 0.0217378 16711680
0.368279 0.156681 0.0219569 16711680
0.368641 0.157399 0.0224299 16711680
0.369113 0.158129 0.0230472 16711680
0.368596 0.15874 0.0223669 16711680
0.367982 0.15934 0.0215602 16711680
0.367318 0.159934 0.0206869 16711680
0.384767 0.0765507 0.0426834 16711680
0.384617 0.0771916 0.0424844 16711680
0.38375 0.0776813 0.0413449 16711680
0.381212 0.0791702 0.0380059 16711680
0.38182 0.0799719 0.0388033 16711680
0.381677 0.0806167 0.0386144 16711680
0.381194 0.0811913 0.0379791 16711680
0.381223 0.081872 0.0380163 16711680
0.382937 0.0828987 0.040266 16711680
0.383187 0.0836231 0.0405927 16711680
0.381135 0.0852261 0.0378929 16711680
0.381692 0.0860129 0.0386239 16711680
0.38131 0.0866097 0.03812 16711680
0.380919 0.0872053 0.0376056 16711680
0.380291 0.0877541 0.0367798 16711680
0.379871 0.088345 0.0362258 16711680
0.379633 0.0889725 0.0359117 16711680
0.37935 0.0895916 0.0355397 16711680
0.379427 0.0902814 0.0356385 16711680
0.379244 0.0909205 0.0353978 16711680
0.37923 0.0915924 0.0353777 16711680
0.379223 0.0922658 0.0353673 16711680
0.37914 0.0929242 0.0352561 16711680
0.379129 0.0935968 0.035241 16711680
0.379103 0.0942663 0.0352057 16711680
0.379133 0.0949464 0.0352434 16711680
0.37915 0.0956239 0.0352644 16711680
0.379154 0.0962988 0.0352678 16711680
0.379579 0.0970533 0.0358245 16711680
0.379572 0.0977257 0.0358139 16711680
0.379542 0.0983937 0.0357739 16711680
0.379313 0.0990244 0.0354716 16711680
0.378685 0.099581 0.0346447 16711680
0.378722 0.100262 0.0346918 16711680
0.378392 0.100875 0.0342579 16711680
0.378226 0.101518 0.0340374 16711680
0.377733 0.102102 0.0333881 16711680
0.377267 0.102691 0.0327748 16711680
0.377115 0.103338 0.0325739 16711680
0.376911 0.103976 0.0323042 16711680
0.376546 0.104585 0.0318234 16711680
0.37652 0.105255 0.0317879 16711680
0.376086 0.105852 0.0312172 16711680
0.375955 0.106504 0.0310436 16711680
0.375925 0.107173 0.0310023 16711680
0.375744 0.107816 0.030763 16711680
0.375711 0.108485 0.0307178 16711680
0.375554 0.109133 0.030511 16711680
0.375693 0.109832 0.0306916 16711680
0.375476 0.110469 0.0304058 16711680
0.375607 0.111166 0.0305759 16711680
0.375304 0.111789 0.0301763 16711680
0.37543 0.112485 0.0303408 16711680
0.37539 0.113153 0.0302862 16711680
0.375993 0.11393 0.0310768 16711680
0.376349 0.114664 0.0315441 16711680
0.384094 0.118647 0.0417116 16711680
0.383775 0.119262 0.041292 16711680
0.386205 0.12033 0.044482 16711680
0.389662 0.121564 0.0490216 16711680
0.389204 0.122152 0.0484195 16711680
0.389018 0.122786 0.0481732 16711680
0.388807 0.123415 0.0478942 16711680
0.388667 0.124056 0.0477096 16711680
0.388547 0.1247 0.04755 16711680
0.388191 0.125307 0.0470806 16711680
0.388142 0.125963 0.0470158 16711680
0.387992 0.126603 0.0468169 16711680
0.387975 0.127264 0.0467931 16711680
0.370948 0.127961 0.0244176 16711680
0.371078 0.128656 0.0245868 16711680
0.371928 0.129462 0.0257021 16711680
0.373869 0.131778 0.0282466 16711680
0.373735 0.132431 0.0280689 16711680
0.374052 0.133151 0.0284848 16711680
0.374009 0.133818 0.0284263 16711680
0.373726 0.134449 0.0280527 16711680
0.373526 0.135092 0.0277891 16711680
0.373419 0.13575 0.0276464 16711680
0.373147 0.136383 0.0272877 16711680
0.373095 0.137049 0.0272179 16711680
0.3727 0.137665 0.0266979 16711680
0.372551 0.138317 0.0265001 16711680
0.372367 0.138964 0.0262568 16711680
0.372216 0.139616 0.0260572 16711680
0.372038 0.140264 0.0258218 16711680
0.371662 0.140885 0.0253259 16711680
0.37149 0.141535 0.0250986 16711680
0.371166 0.142164 0.0246718 16711680
0.370589 0.142758 0.0239116 16711680
0.370315 0.143394 0.0235497 16711680
0.370226 0.144056 0.0234321 16711680
0.370038 0.144705 0.0231827 16711680
0.370002 0.145375 0.0231348 16711680
0.369813 0.146023 0.0228845 16711680
0.369762 0.146691 0.0228152 16711680
0.3696 0.147343 0.0226009 16711680
0.369549 0.148011 0.0225332 16711680
0.369431 0.14867 0.0223765 16711680
0.369132 0.149305 0.0219814 16711680
0.369262 0.149996 0.0221505 16711680
0.369388 0.150686 0.0223149 16711680
0.369779 0.151411 0.0228266 16711680
0.370454 0.15217 0.0237124 16711680
0.37032 0.152827 0.023535 16711680
0.369996 0.153459 0.0231069 16711680
0.36959 0.154081 0.0225725 16711680
0.369213 0.154707 0.0220755 16711680
0.369255 0.155386 0.0221297 16711680
0.368851 0.15601 0.0215962 16711680
0.368825 0.15668 0.0215604 16711680
0.369105 0.157388 0.021927 16711680
0.369749 0.158139 0.022771 16711680
0.36966 0.158802 0.0226529 16711680
0.369262 0.159427 0.0221283 16711680
0.368585 0.160019 0.0212374 16711680
0.385248 0.0765385 0.0422113 16711680
0.385192 0.0771995 0.0421371 16711680
0.384718 0.0777721 0.0415127 16711680
0.382007 0.0792237 0.0379443 16711680
0.3826 0.0800222 0.0387229 16711680
0.382376 0.0806499 0.0384275 16711680
0.382081 0.0812631 0.0380377 16711680
0.382093 0.0819402 0.0380532 16711680
0.38433 0.0830744 0.040993 16711680
0.383998 0.083679 0.0405549 16711680
0.382934 0.0841345 0.0391545 16711680
0.381803 0.084578 0.0376664 16711680
0.382715 0.0854369 0.0388637 16711680
0.382565 0.0860801 0.0386652 16711680
0.382164 0.0866729 0.0381368 16711680
0.381612 0.087236 0.0374098 16711680
0.380941 0.0877759 0.0365261 16711680
0.38059 0.0883805 0.036064 16711680
0.380383 0.089014 0.03579 16711680
0.380091 0.089631 0.035405 16711680
0.38016 0.0903192 0.0354943 16711680
0.379904 0.0909437 0.035157 16711680
0.37991 0.0916196 0.0351638 16711680
0.3798 0.0922727 0.035017 16711680
0.379733 0.0929342 0.0349274 16711680
0.379696 0.0936017 0.0348781 16711680
0.379689 0.0942748 0.0348679 16711680
0.37965 0.0949417 0.0348151 16711680
0.379581 0.0956028 0.0347224 16711680
0.379662 0.0962925 0.0348277 16711680
0.380388 0.0971041 0.0357816 16711680
0.380273 0.0977559 0.0356288 16711680
0.380234 0.0984221 0.0355767 16711680
0.37998 0.099048 0.0352415 16711680
0.380079 0.0997398 0.0353695 16711680
0.379924 0.100384 0.0351645 16711680
0.379113 0.100908 0.0340977 16711680
0.379151 0.101589 0.0341463 16711680
0.37847 0.102138 0.0332487 16711680
0.377929 0.102713 0.0325358 16711680
0.377913 0.103385 0.0325145 16711680
0.377621 0.104006 0.0321293 16711680
0.377316 0.104626 0.031727 16711680
0.377298 0.105297 0.0317017 16711680
0.376845 0.10589 0.0311046 16711680
0.376832 0.106563 0.0310854 16711680
0.376665 0.107208 0.0308651 16711680
0.376565 0.107865 0.0307318 16711680
0.37653 0.108534 0.0306849 16711680
0.376429 0.109191 0.0305511 16711680
0.376378 0.109856 0.0304816 16711680
0.376221 0.110504 0.0302739 16711680
0.376347 0.1112 0.0304384 16711680
0.376045 0.111823 0.0300407 16711680
0.37613 0.112512 0.030151 16711680
0.376002 0.113165 0.029981 16711680
0.376424 0.113911 0.0305351 16711680
0.376791 0.114647 0.031015 16711680
0.384987 0.118039 0.0417877 16711680
0.384662 0.118652 0.0413591 16711680
0.390436 0.12094 0.048949 16711680
0.390291 0.121579 0.0487566 16711680
0.389795 0.122161 0.0481032 16711680
0.389638 0.122799 0.0478954 16711680
0.389327 0.123412 0.0474848 16711680
0.38916 0.124049 0.0472639 16711680
0.38911 0.124705 0.0471969 16711680
0.388782 0.125316 0.046765 16711680
0.388695 0.125966 0.0466486 16711680
0.388544 0.126605 0.0464485 16711680
0.388208 0.127216 0.0460052 16711680
0.387075 0.127702 0.0445144 16711680
0.371801 0.127332 0.024426 16711680
0.372038 0.128044 0.0247359 16711680
0.371737 0.128673 0.0243398 16711680
0.376547 0.13277 0.0306565 16711680
0.375456 0.133279 0.0292209 16711680
0.375003 0.133884 0.0286239 16711680
0.37522 0.134588 0.0289081 16711680
0.374933 0.135219 0.0285293 16711680
0.374589 0.135841 0.0280749 16711680
0.374548 0.136507 0.0280193 16711680
0.373893 0.137085 0.0271567 16711680
0.373401 0.137687 0.0265079 16711680
0.37328 0.138343 0.0263479 16711680
0.37284 0.138953 0.0257679 16711680
0.372456 0.139572 0.0252609 16711680
0.372467 0.140247 0.0252738 16711680
0.372261 0.140892 0.0250022 16711680
0.372129 0.141547 0.0248274 16711680
0.371753 0.142169 0.024331 16711680
0.371156 0.14276 0.0235443 16711680
0.370979 0.14341 0.0233109 16711680
0.37078 0.144057 0.0230474 16711680
0.370567 0.144702 0.0227654 16711680
0.370572 0.145377 0.0227704 16711680
0.37041 0.14603 0.0225561 16711680
0.370459 0.14671 0.0226188 16711680
0.37023 0.147354 0.022316 16711680
0.370314 0.148039 0.0224255 16711680
0.370092 0.148684 0.0221324 16711680
0.369995 0.149346 0.0220027 16711680
0.369917 0.15001 0.0218989 16711680
0.369912 0.150683 0.0218911 16711680
0.37022 0.151396 0.0222938 16711680
0.370845 0.15215 0.0231138 16711680
0.371287 0.152879 0.0236936 16711680
0.370996 0.153515 0.0233102 16711680
0.370392 0.154112 0.022514 16711680
0.370289 0.154773 0.0223775 16711680
0.370162 0.15543 0.022208 16711680
0.369827 0.156062 0.0217664 16711680
0.369508 0.156696 0.0213459 16711680
0.36972 0.157396 0.0216222 16711680
0.370286 0.158138 0.022366 16711680
0.370427 0.158827 0.02255 16711680
0.370295 0.159484 0.0223743 16711680
0.369553 0.160069 0.021397 16711680
0.385558 0.0764902 0.0415161 16711680
0.385768 0.0772077 0.0417906 16711680
0.38548 0.0778196 0.041411 16711680
0.382264 0.0791646 0.0371755 16711680
0.383684 0.0801359 0.0390431 16711680
0.383439 0.0807588 0.0387191 16711680
0.383068 0.0813558 0.0382293 16711680
0.383202 0.0820577 0.0384049 16711680
0.384937 0.0830884 0.0406865 16711680
0.384846 0.0837423 0.0405655 16711680
0.383866 0.0842148 0.0392754 16711680
0.382802 0.0846714 0.0378733 16711680
0.383582 0.0855035 0.0388995 16711680
0.383677 0.0861959 0.0390232 16711680
0.383093 0.0867514 0.0382535 16711680
0.382334 0.0872724 0.0372523 16711680
0.381672 0.0878141 0.0363808 16711680
0.381335 0.0884212 0.035936 16711680
0.381055 0.0890402 0.0355667 16711680
0.380803 0.0896647 0.0352331 16711680
0.380884 0.0903554 0.0353391 16711680
0.380556 0.0909655 0.0349065 16711680
0.380666 0.0916615 0.0350492 16711680
0.380445 0.0922929 0.0347574 16711680
0.38041 0.0929607 0.0347108 16711680
0.380322 0.0936181 0.0345931 16711680
0.380364 0.0943006 0.0346477 16711680
0.380187 0.094941 0.0344136 16711680
0.380117 0.0956019 0.0343198 16711680
0.380229 0.0962974 0.034466 16711680
0.381097 0.097136 0.0356075 16711680
0.380844 0.0977615 0.0352721 16711680
0.380751 0.0984175 0.0351489 16711680
0.380599 0.0990625 0.0349476 16711680
0.380821 0.0997774 0.0352387 16711680
0.380657 0.10042 0.0350213 16711680
0.380442 0.101054 0.0347379 16711680
0.38032 0.101704 0.0345764 16711680
0.379616 0.102249 0.0336486 16711680
0.379379 0.102879 0.0333345 16711680
0.378751 0.103438 0.0325073 16711680
0.378321 0.104035 0.0319401 16711680
0.378112 0.104671 0.0316635 16711680
0.378024 0.10533 0.0315471 16711680
0.377771 0.105959 0.0312124 16711680
0.377691 0.106619 0.0311058 16711680
0.377348 0.107233 0.030653 16711680
0.377432 0.107922 0.0307622 16711680
0.377269 0.108568 0.0305463 16711680
0.377251 0.10924 0.0305222 16711680
0.377085 0.109885 0.0303022 16711680
0.376946 0.110535 0.0301179 16711680
0.377005 0.11122 0.0301942 16711680
0.376752 0.111851 0.0298598 16711680
0.376786 0.112531 0.0299037 16711680
0.376477 0.113153 0.0294957 16711680
0.386191 0.116816 0.0422757 16711680
0.385643 0.117391 0.0415534 16711680
0.385439 0.118024 0.0412828 16711680
0.391304 0.120995 0.0489988 16711680
0.390873 0.121587 0.04843 16711680
0.390548 0.122197 0.0480014 16711680
0.390288 0.122818 0.047658 16711680
0.389911 0.12342 0.0471594 16711680
0.389678 0.124046 0.0468515 16711680
0.389595 0.124696 0.046742 16711680
0.389295 0.125312 0.0463448 16711680
0.389236 0.125966 0.0462662 16711680
0.389125 0.126612 0.0461192 16711680
0.388868 0.127236 0.0457799 16711680
0.387951 0.127755 0.0445714 16711680
0.386954 0.128264 0.043257 16711680
0.371942 0.127945 0.0234963 16711680
0.377068 0.134109 0.0302316 16711680
0.376781 0.134738 0.0298529 16711680
0.376473 0.135364 0.0294465 16711680
0.376111 0.135983 0.0289685 16711680
0.375382 0.136549 0.0280077 16711680
0.374844 0.137143 0.027298 16711680
0.374306 0.137738 0.026588 16711680
0.374045 0.138374 0.0262429 16711680
0.373382 0.138953 0.0253699 16711680
0.373006 0.139573 0.0248725 16711680
0.373035 0.14025 0.0249101 16711680
0.372866 0.1409 0.0246862 16711680
0.372767 0.14156 0.0245539 16711680
0.372403 0.142183 0.0240736 16711680
0.371823 0.142776 0.0233086 16711680
0.371626 0.143423 0.0230479 16711680
0.371359 0.144061 0.0226957 16711680
0.371187 0.144712 0.0224679 16711680
0.371226 0.145391 0.0225178 16711680
0.371035 0.14604 0.0222653 16711680
0.371163 0.146731 0.0224323 16711680
0.370918 0.147372 0.0221082 16711680
0.371073 0.148067 0.0223099 16711680
0.370748 0.148698 0.0218818 16711680
0.370909 0.149393 0.0220922 16711680
0.370638 0.150032 0.0217333 16711680
0.370517 0.15069 0.0215727 16711680
0.370686 0.151386 0.0217942 16711680
0.371152 0.152119 0.0224057 16711680
0.371684 0.15286 0.0231045 16711680
0.371894 0.153559 0.0233794 16711680
0.371259 0.154152 0.0225422 16711680
0.37082 0.15477 0.0219634 16711680
0.371052 0.155472 0.0222666 16711680
0.370889 0.156125 0.0220513 16711680
0.370615 0.156764 0.0216888 16711680
0.370296 0.157399 0.0212681 16711680
0.370785 0.158131 0.02191 16711680
0.371085 0.15884 0.0223033 16711680
0.371084 0.159513 0.0223006 16711680
0.370527 0.160119 0.0215658 16711680
0.369622 0.160684 0.0203732 16711680
0.38589 0.0764463 0.0408481 16711680
0.386379 0.0772234 0.0414912 16711680
0.386163 0.0778503 0.0412054 16711680
0.385262 0.078333 0.0400174 16711680
0.383514 0.0786388 0.0377139 16711680
0.382718 0.0791467 0.0366647 16711680
0.384807 0.0802578 0.0394148 16711680
0.38474 0.0809173 0.0393252 16711680
0.383895 0.0814154 0.0382109 16711680
0.38446 0.0822062 0.0389547 16711680
0.385421 0.0830775 0.0402199 16711680
0.385518 0.0837699 0.0403465 16711680
0.384905 0.0843171 0.0395381 16711680
0.384071 0.0848201 0.0384383 16711680
0.38416 0.0855113 0.0385534 16711680
0.384312 0.0862153 0.0387536 16711680
0.383858 0.0867968 0.0381544 16711680
0.383038 0.0873054 0.0370722 16711680
0.382437 0.0878589 0.0362794 16711680
0.382198 0.0884855 0.0359641 16711680
0.381768 0.0890744 0.0353968 16711680
0.381518 0.0896994 0.0350668 16711680
0.381554 0.0903807 0.0351118 16711680
0.381263 0.0909982 0.0347285 16711680
0.381376 0.0916946 0.0348756 16711680
0.381091 0.0923134 0.0344993 16711680
0.381145 0.0929982 0.0345688 16711680
0.380939 0.0936328 0.034297 16711680
0.380947 0.0943086 0.034306 16711680
0.380745 0.0949442 0.0340393 16711680
0.380598 0.0955904 0.0338445 16711680
0.380979 0.0963372 0.0343453 16711680
0.381722 0.0971518 0.035322 16711680
0.381362 0.0977573 0.0348473 16711680
0.381164 0.0983934 0.0345846 16711680
0.381189 0.0990717 0.0346169 16711680
0.38135 0.099775 0.0348274 16711680
0.381182 0.100417 0.0346047 16711680
0.38131 0.101114 0.0347726 16711680
0.381137 0.101755 0.0345434 16711680
0.381056 0.102414 0.0344363 16711680
0.380753 0.103031 0.0340362 16711680
0.379712 0.103515 0.0326636 16711680
0.379102 0.104078 0.0318586 16711680
0.37901 0.104735 0.0317359 16711680
0.378727 0.105359 0.0313619 16711680
0.37854 0.105999 0.0311139 16711680
0.378444 0.106657 0.030987 16711680
0.378162 0.107281 0.0306139 16711680
0.378198 0.107962 0.0306598 16711680
0.37796 0.108594 0.0303457 16711680
0.377971 0.10927 0.0303584 16711680
0.377798 0.109915 0.0301305 16711680
0.377767 0.110584 0.0300876 16711680
0.377644 0.111237 0.0299248 16711680
0.377523 0.11189 0.0297645 16711680
0.377456 0.112553 0.0296744 16711680
0.387051 0.116203 0.0423108 16711680
0.386486 0.116775 0.0415646 16711680
0.386087 0.117375 0.0410378 16711680
0.386837 0.118168 0.0420254 16711680
0.39211 0.119714 0.0489695 16711680
0.391882 0.120339 0.0486676 16711680
0.391697 0.120971 0.0484235 16711680
0.391451 0.121594 0.0480976 16711680
0.391194 0.122215 0.0477577 16711680
0.390981 0.122843 0.0474757 16711680
0.390495 0.123428 0.0468352 16711680
0.390217 0.124046 0.0464672 16711680
0.390068 0.124686 0.0462699 16711680
0.389798 0.125306 0.0459132 16711680
0.389891 0.125985 0.046034 16711680
0.389685 0.126616 0.0457619 16711680
0.389614 0.127268 0.0456668 16711680
0.389369 0.127894 0.0453432 16711680
0.388316 0.128393 0.043954 16711680
0.387518 0.128933 0.042902 16711680
0.371906 0.128531 0.0223318 16711680
0.370001 0.128916 0.0198212 16711680
0.378898 0.1343 0.0315332 16711680
0.378399 0.134896 0.0308758 16711680
0.377814 0.135481 0.0301032 16711680
0.37701 0.136035 0.0290427 16711680
0.376133 0.136579 0.0278856 16711680
0.375524 0.137163 0.0270828 16711680
0.375293 0.137802 0.0267774 16711680
0.374991 0.138431 0.0263774 16711680
0.374443 0.139026 0.0256548 16711680
0.374163 0.139659 0.025285 16711680
0.373779 0.140278 0.0247771 16711680
0.37346 0.140906 0.0243562 16711680
0.373299 0.141557 0.0241419 16711680
0.37306 0.142198 0.023826 16711680
0.372569 0.142803 0.0231782 16711680
0.372378 0.143451 0.0229251 16711680
0.372059 0.144081 0.0225034 16711680
0.37208 0.144758 0.0225298 16711680
0.372042 0.145427 0.0224781 16711680
0.371866 0.146077 0.0222446 16711680
0.371925 0.146759 0.0223217 16711680
0.37185 0.147423 0.022221 16711680
0.371889 0.148102 0.0222714 16711680
0.37157 0.148734 0.0218503 16711680
0.371674 0.149421 0.0219847 16711680
0.371383 0.150057 0.0216007 16711680
0.371364 0.150728 0.0215737 16711680
0.371333 0.151398 0.0215323 16711680
0.371764 0.152127 0.0220978 16711680
0.371966 0.152825 0.0223628 16711680
0.372546 0.153572 0.0231255 16711680
0.372322 0.154216 0.0228298 16711680
0.371799 0.154823 0.022139 16711680
0.371793 0.155496 0.0221293 16711680
0.371916 0.156184 0.0222907 16711680
0.371513 0.156807 0.0217586 16711680
0.370956 0.157412 0.0210233 16711680
0.371286 0.158125 0.0214556 16711680
0.371585 0.158834 0.0218489 16711680
0.371739 0.159525 0.02205 16711680
0.371525 0.160172 0.0217669 16711680
0.371113 0.160795 0.0212227 16711680
0.38616 0.0757157 0.0400995 16711680
0.385805 0.0763134 0.0396301 16711680
0.386688 0.0771747 0.0407926 16711680
0.386797 0.0778707 0.0409354 16711680
0.386203 0.0784182 0.0401523 16711680
0.384868 0.0788102 0.03839 16711680
0.383341 0.0791641 0.0363762 16711680
0.386016 0.0803979 0.039902 16711680
0.385781 0.0810219 0.0395911 16711680
0.3851 0.0815538 0.0386931 16711680
0.3854 0.0822892 0.0390875 16711680
0.38604 0.0830941 0.0399302 16711680
0.38621 0.0838014 0.0401528 16711680
0.385983 0.0844274 0.0398527 16711680
0.385127 0.0849254 0.0387236 16711680
0.384473 0.0854655 0.0378592 16711680
0.384909 0.0862271 0.0384338 16711680
0.384511 0.0868197 0.0379076 16711680
0.383729 0.0873358 0.0368754 16711680
0.383243 0.0879122 0.0362335 16711680
0.382937 0.088525 0.0358289 16711680
0.382469 0.0891063 0.0352119 16711680
0.382284 0.0897439 0.0349667 16711680
0.382192 0.0904 0.0348436 16711680
0.381979 0.0910324 0.034562 16711680
0.382016 0.091714 0.0346098 16711680
0.381801 0.0923464 0.034326 16711680
0.381842 0.0930286 0.0343783 16711680
0.381539 0.0936441 0.0339776 16711680
0.381543 0.0943191 0.0339817 16711680
0.381304 0.0949476 0.0336664 16711680
0.381237 0.0956091 0.033577 16711680
0.382178 0.0964624 0.0348161 16711680
0.382247 0.097149 0.0349063 16711680
0.381764 0.0977311 0.0342686 16711680
0.381588 0.0983714 0.0340351 16711680
0.381769 0.099079 0.0342728 16711680
0.38173 0.099745 0.0342197 16711680
0.381615 0.100397 0.0340677 16711680
0.381814 0.101107 0.0343288 16711680
0.381686 0.101757 0.0341586 16711680
0.381854 0.102461 0.034379 16711680
0.381545 0.103077 0.0339707 16711680
0.381101 0.103669 0.0333849 16711680
0.380645 0.104259 0.032782 16711680
0.380086 0.104832 0.0320441 16711680
0.379428 0.105387 0.0311748 16711680
0.379285 0.106036 0.030986 16711680
0.379095 0.106676 0.0307336 16711680
0.378881 0.107312 0.0304502 16711680
0.378907 0.107991 0.0304834 16711680
0.378618 0.108614 0.0301011 16711680
0.378669 0.109298 0.0301678 16711680
0.37851 0.109944 0.0299568 16711680
0.378561 0.110627 0.0300226 16711680
0.378341 0.111263 0.0297325 16711680
0.378261 0.111924 0.0296257 16711680
0.377924 0.11254 0.0291804 16711680
0.387215 0.11614 0.0414264 16711680
0.38692 0.116757 0.041037 16711680
0.386654 0.11738 0.0406847 16711680
0.392837 0.119083 0.0488355 16711680
0.392804 0.11974 0.0487916 16711680
0.392388 0.120334 0.048241 16711680
0.392358 0.120992 0.0482002 16711680
0.392019 0.121599 0.0477529 16711680
0.391695 0.122209 0.0473249 16711680
0.391596 0.122856 0.0471922 16711680
0.391148 0.123447 0.0466012 16711680
0.390793 0.124053 0.0461321 16711680
0.390626 0.124689 0.0459102 16711680
0.390412 0.125319 0.045627 16711680
0.390501 0.125997 0.0457429 16711680
0.390197 0.126612 0.0453408 16711680
0.390254 0.127285 0.0454153 16711680
0.390045 0.127915 0.045138 16711680
0.388948 0.128407 0.0436907 16711680
0.387742 0.128884 0.0420996 16711680
0.373114 0.128632 0.0228083 16711680
0.384651 0.133073 0.038016 16711680
0.383009 0.133493 0.0358491 16711680
0.381466 0.133931 0.0338132 16711680
0.380807 0.134502 0.032944 16711680
0.379613 0.134995 0.0313674 16711680
0.378666 0.135526 0.030118 16711680
0.377633 0.136046 0.0287551 16711680
0.376884 0.136608 0.0277659 16711680
0.376057 0.137161 0.0266744 16711680
0.375898 0.13781 0.0264636 16711680
0.375698 0.138454 0.0261983 16711680
0.375617 0.139115 0.0260907 16711680
0.375337 0.139748 0.0257198 16711680
0.374449 0.140295 0.0245471 16711680
0.373954 0.140899 0.0238936 16711680
0.374057 0.141587 0.024029 16711680
0.373684 0.142208 0.0235351 16711680
0.373296 0.142828 0.0230228 16711680
0.373245 0.143495 0.0229535 16711680
0.372814 0.144109 0.0223845 16711680
0.372845 0.144787 0.0224235 16711680
0.372706 0.145442 0.0222394 16711680
0.372603 0.146102 0.022102 16711680
0.372638 0.146781 0.0221474 16711680
0.372612 0.147451 0.0221117 16711680
0.372665 0.148132 0.0221797 16711680
0.372518 0.148786 0.0219843 16711680
0.372564 0.149465 0.0220439 16711680
0.372346 0.15011 0.0217562 16711680
0.372418 0.150793 0.0218496 16711680
0.37205 0.151419 0.021363 16711680
0.372327 0.152128 0.0217264 16711680
0.3725 0.152823 0.0219542 16711680
0.373116 0.153574 0.0227642 16711680
0.373461 0.15429 0.0232183 16711680
0.372892 0.154891 0.0224668 16711680
0.372405 0.155503 0.0218232 16711680
0.372939 0.156242 0.0225264 16711680
0.372332 0.15684 0.0217235 16711680
0.372056 0.157479 0.021359 16711680
0.37195 0.158138 0.0212171 16711680
0.372177 0.158839 0.0215161 16711680
0.372452 0.159544 0.0218775 16711680
0.372619 0.160236 0.0220957 16711680
0.37205 0.160841 0.0213438 16711680
0.371207 0.161414 0.0202314 16711680
0.386614 0.0756977 0.0395914 16711680
0.386307 0.0763057 0.0391852 16711680
0.387016 0.0771302 0.0401198 16711680
0.387745 0.0779577 0.0410804 16711680
0.387328 0.0785421 0.0405295 16711680
0.386322 0.0790029 0.0392013 16711680
0.384522 0.0792986 0.0368245 16711680
0.387369 0.0805684 0.0405817 16711680
0.386685 0.0810982 0.039678 16711680
0.3862 0.0816703 0.0390366 16711680
0.386194 0.0823419 0.0390272 16711680
0.386573 0.0830929 0.0395265 16711680
0.386758 0.0838035 0.0397701 16711680
0.386769 0.084478 0.0397835 16711680
0.38617 0.0850282 0.0389924 16711680
0.385195 0.0855028 0.0377051 16711680
0.385463 0.0862301 0.0380571 16711680
0.385186 0.0868472 0.0376915 16711680
0.384515 0.0873853 0.0368041 16711680
0.384145 0.0879847 0.0363148 16711680
0.383686 0.0885668 0.0357089 16711680
0.383177 0.0891395 0.0350356 16711680
0.383173 0.0898128 0.0350296 16711680
0.382899 0.0904329 0.0346671 16711680
0.382798 0.0910871 0.0345328 16711680
0.382689 0.09174 0.0343885 16711680
0.382512 0.0923796 0.0341537 16711680
0.382609 0.0930725 0.0342802 16711680
0.382263 0.0936796 0.0338233 16711680
0.382241 0.0943495 0.0337934 16711680
0.381984 0.0949741 0.0334523 16711680
0.382287 0.0957063 0.0338515 16711680
0.383462 0.096604 0.0354011 16711680
0.38281 0.0971531 0.0345395 16711680
0.382061 0.0976849 0.0335505 16711680
0.382291 0.0984019 0.0338528 16711680
0.382301 0.0990772 0.0338647 16711680
0.382209 0.0997336 0.0337433 16711680
0.382058 0.100379 0.0335429 16711680
0.38216 0.101071 0.033676 16711680
0.3821 0.101733 0.0335957 16711680
0.382297 0.102443 0.0338556 16711680
0.382073 0.103074 0.0335578 16711680
0.381938 0.103723 0.0333792 16711680
0.381748 0.104361 0.0331274 16711680
0.380957 0.104891 0.0320822 16711680
0.380452 0.105474 0.0314155 16711680
0.380402 0.106139 0.0313485 16711680
0.379946 0.106731 0.0307457 16711680
0.379867 0.107391 0.0306396 16711680
0.379601 0.108018 0.0302877 16711680
0.379278 0.108635 0.0298606 16711680
0.379355 0.109323 0.0299609 16711680
0.379162 0.109963 0.0297054 16711680
0.379197 0.110643 0.0297502 16711680
0.379 0.111283 0.0294889 16711680
0.389074 0.115031 0.0427809 16711680
0.388048 0.115523 0.0414267 16711680
0.387504 0.116097 0.0407064 16711680
0.387325 0.116734 0.0404694 16711680
0.387481 0.117428 0.040674 16711680
0.393691 0.119136 0.0488684 16711680
0.393425 0.119755 0.0485168 16711680
0.393219 0.120383 0.0482441 16711680
0.393127 0.121031 0.0481218 16711680
0.39274 0.121629 0.0476092 16711680
0.392396 0.122236 0.0471549 16711680
0.392161 0.122861 0.0468434 16711680
0.391659 0.123442 0.04618 16711680
0.391228 0.124036 0.0456104 16711680
0.391331 0.124716 0.0457442 16711680
0.391592 0.125422 0.0460879 16711680
0.391256 0.126031 0.0456438 16711680
0.390712 0.126608 0.0449243 16711680
0.390955 0.12731 0.0452441 16711680
0.390603 0.127919 0.0447779 16711680
0.389435 0.128399 0.0432359 16711680
0.388247 0.128879 0.0416673 16711680
0.371206 0.128255 0.0191736 16711680
0.385382 0.133101 0.0378785 16711680
0.383997 0.13356 0.0360496 16711680
0.382862 0.134058 0.03455 16711680
0.38144 0.134515 0.0326728 16711680
0.380312 0.135018 0.0311826 16711680
0.379482 0.135566 0.0300852 16711680
0.378519 0.136096 0.0288144 16711680
0.377539 0.136624 0.0275186 16711680
0.376586 0.137158 0.026261 16711680
0.376469 0.137814 0.0261047 16711680
0.376252 0.138455 0.0258168 16711680
0.376247 0.139127 0.02581 16711680
0.376087 0.139776 0.025597 16711680
0.37538 0.140349 0.0246626 16711680
0.374639 0.140918 0.0236843 16711680
0.374631 0.14159 0.0236714 16711680
0.374434 0.142236 0.0234114 16711680
0.374401 0.142905 0.0233667 16711680
0.374021 0.143526 0.0228628 16711680
0.373491 0.144127 0.0221628 16711680
0.37339 0.144787 0.0220286 16711680
0.373186 0.145433 0.0217571 16711680
0.373178 0.146106 0.0217465 16711680
0.373222 0.146785 0.0218034 16711680
0.373528 0.1475 0.0222051 16711680
0.373516 0.148172 0.0221883 16711680
0.373601 0.148856 0.0222999 16711680
0.373317 0.149492 0.0219231 16711680
0.373199 0.15015 0.021767 16711680
0.373131 0.150814 0.0216756 16711680
0.372818 0.151447 0.0212607 16711680
0.372959 0.152138 0.0214455 16711680
0.372963 0.152812 0.0214502 16711680
0.373529 0.153557 0.0221957 16711680
0.374196 0.154313 0.0230751 16711680
0.373823 0.154939 0.0225821 16711680
0.3731 0.155521 0.021626 16711680
0.373618 0.156258 0.0223088 16711680
0.373482 0.156913 0.0221276 16711680
0.373174 0.157548 0.0217197 16711680
0.372703 0.158163 0.0210971 16711680
0.372724 0.158838 0.0211231 16711680
0.373063 0.159551 0.0215691 16711680
0.373578 0.160285 0.0222485 16711680
0.372908 0.160877 0.0213631 16711680
0.372177 0.161463 0.020396 16711680
0.388144 0.0752375 0.0405055 16711680
0.387253 0.0757195 0.0393281 16711680
0.387682 0.0764844 0.039893 16711680
0.388858 0.0774079 0.0414461 16711680
0.388915 0.078092 0.0415202 16711680
0.388513 0.0786791 0.0409889 16711680
0.387659 0.0791713 0.0398598 16711680
0.386523 0.0796055 0.0383583 16711680
0.389054 0.0808083 0.0417006 16711680
0.388248 0.0813119 0.0406355 16711680
0.387489 0.0818262 0.0396318 16711680
0.386929 0.0823827 0.0388912 16711680
0.386945 0.0830589 0.0389122 16711680
0.387226 0.0837892 0.0392824 16711680
0.38745 0.0845073 0.0395765 16711680
0.387016 0.0850909 0.0390024 16711680
0.385972 0.0855511 0.0376228 16711680
0.385814 0.0861921 0.037413 16711680
0.385703 0.0868427 0.0372654 16711680
0.385406 0.0874561 0.0368726 16711680
0.385208 0.0880895 0.0366101 16711680
0.384413 0.0886041 0.0355589 16711680
0.384107 0.0892169 0.0351539 16711680
0.384069 0.0898834 0.0351039 16711680
0.383796 0.0905033 0.0347422 16711680
0.383816 0.091181 0.034767 16711680
0.383572 0.0918069 0.0344434 16711680
0.383637 0.0924935 0.0345285 16711680
0.383478 0.0931364 0.0343183 16711680
0.383506 0.0938155 0.0343542 16711680
0.383309 0.0944512 0.0340934 16711680
0.383172 0.0950985 0.0339112 16711680
0.383512 0.0958374 0.0343601 16711680
0.384019 0.0966072 0.0350279 16711680
0.383353 0.0971536 0.0341474 16711680
0.382782 0.0977189 0.0333923 16711680
0.383013 0.0984361 0.0336971 16711680
0.382817 0.0990727 0.0334374 16711680
0.382796 0.0997422 0.0334086 16711680
0.382595 0.100378 0.033142 16711680
0.382559 0.101045 0.0330936 16711680
0.382545 0.101715 0.0330741 16711680
0.38253 0.102386 0.0330527 16711680
0.382415 0.103038 0.0328996 16711680
0.382364 0.103702 0.0328314 16711680
0.382268 0.104357 0.0327039 16711680
0.381765 0.104939 0.0320388 16711680
0.381147 0.105501 0.031222 16711680
0.380832 0.106119 0.0308048 16711680
0.380728 0.106774 0.030666 16711680
0.380586 0.107422 0.0304778 16711680
0.380273 0.108041 0.030063 16711680
0.37986 0.108642 0.0295161 16711680
0.379952 0.109332 0.0296369 16711680
0.379724 0.109966 0.0293355 16711680
0.379777 0.11065 0.0294037 16711680
0.379631 0.111298 0.0292097 16711680
0.379344 0.111923 0.0288297 16711680
0.388539 0.115514 0.0409728 16711680
0.387982 0.116087 0.0402362 16711680
0.387809 0.116725 0.0400071 16711680
0.391472 0.11801 0.0448451 16711680
0.394055 0.119108 0.0482554 16711680
0.393983 0.119758 0.0481598 16711680
0.393942 0.120414 0.0481042 16711680
0.393797 0.121053 0.0479116 16711680
0.393466 0.121661 0.0474732 16711680
0.393115 0.122266 0.0470089 16711680
0.392897 0.122893 0.0467207 16711680
0.392253 0.123452 0.0458685 16711680
0.391842 0.124049 0.0453246 16711680
0.392473 0.124814 0.0461569 16711680
0.392681 0.12551 0.0464302 16711680
0.392058 0.126074 0.0456073 16711680
0.391496 0.126648 0.0448629 16711680
0.391835 0.127365 0.0453099 16711680
0.391122 0.127916 0.0443671 16711680
0.389921 0.128391 0.0427796 16711680
0.388752 0.128873 0.041234 16711680
0.387836 0.132724 0.040018 16711680
0.383746 0.134109 0.0346124 16711680
0.381605 0.135129 0.031782 16711680
0.380393 0.13562 0.0301797 16711680
0.379353 0.136138 0.0288048 16711680
0.378153 0.136634 0.0272188 16711680
0.377318 0.137185 0.0261145 16711680
0.377029 0.137815 0.025732 16711680
0.376765 0.13845 0.0253822 16711680
0.376741 0.139119 0.025349 16711680
0.376696 0.139785 0.0252893 16711680
0.376415 0.140418 0.0249165 16711680
0.375889 0.141017 0.0242205 16711680
0.375229 0.141597 0.0233468 16711680
0.375066 0.142248 0.0231305 16711680
0.375023 0.142915 0.0230733 16711680
0.374537 0.143521 0.0224303 16711680
0.373994 0.14412 0.0217115 16711680
0.373828 0.144772 0.0214911 16711680
0.373702 0.145428 0.0213232 16711680
0.37371 0.146103 0.0213331 16711680
0.373785 0.146787 0.0214313 16711680
0.374442 0.147548 0.0222979 16711680
0.374374 0.148212 0.0222064 16711680
0.374524 0.148905 0.0224041 16711680
0.374114 0.149524 0.0218611 16711680
0.374217 0.150211 0.021996 16711680
0.373831 0.150834 0.0214851 16711680
0.373676 0.151487 0.0212787 16711680
0.373654 0.152157 0.0212486 16711680
0.373472 0.152807 0.0210074 16711680
0.374028 0.15355 0.0217403 16711680
0.374706 0.154308 0.0226357 16711680
0.374641 0.154972 0.0225484 16711680
0.374168 0.155585 0.0219214 16711680
0.374122 0.156252 0.0218606 16711680
0.374631 0.156987 0.0225319 16711680
0.374017 0.157583 0.0217186 16711680
0.373463 0.158188 0.0209861 16711680
0.373408 0.158854 0.0209121 16711680
0.373578 0.159547 0.0211356 16711680
0.374192 0.160292 0.0219452 16711680
0.37375 0.160911 0.0213604 16711680
0.373269 0.161527 0.0207233 16711680
0.372593 0.16212 0.0198302 16711680
0.389336 0.0753785 0.0409745 16711680
0.389152 0.0760114 0.0407306 16711680
0.390036 0.0768728 0.0418985 16711680
0.389693 0.0774714 0.0414437 16711680
0.389632 0.0781304 0.0413629 16711680
0.389324 0.0787371 0.0409552 16711680
0.388568 0.0792496 0.0399545 16711680
0.387565 0.0797114 0.038628 16711680
0.388557 0.0805919 0.0399377 16711680
0.389464 0.0814534 0.0411367 16711680
0.38848 0.0819203 0.0398345 16711680
0.38769 0.0824289 0.0387897 16711680
0.387639 0.0830911 0.0387222 16711680
0.387747 0.0837858 0.0388643 16711680
0.388136 0.0845378 0.0393775 16711680
0.387758 0.0851326 0.0388768 16711680
0.387087 0.0856683 0.0379887 16711680
0.383129 0.101723 0.0327356 16711680
0.382924 0.102359 0.0324628 16711680
0.38287 0.103022 0.032391 16711680
0.382888 0.103699 0.0324144 16711680
0.382751 0.104347 0.0322319 16711680
0.382353 0.104948 0.0317048 16711680
0.381501 0.105467 0.0305777 16711680
0.380809 0.106017 0.029662 16711680
0.380678 0.106668 0.0294874 16711680
0.380462 0.107304 0.0292011 16711680
0.380935 0.108062 0.0298264 16711680
0.380651 0.108686 0.0294487 16711680
0.380559 0.109343 0.0293264 16711680
0.380298 0.109972 0.0289812 16711680
0.380323 0.11065 0.0290126 16711680
0.380175 0.111298 0.028816 16711680
0.378721 0.111721 0.0268934 16711680
0.391083 0.114526 0.0432367 16711680
0.390102 0.115023 0.0419389 16711680
0.389097 0.115518 0.0406094 16711680
0.388528 0.116088 0.0398562 16711680
0.388652 0.116777 0.040019 16711680
0.392657 0.118119 0.0453136 16711680
0.394055 0.119018 0.0471603 16711680
0.394529 0.11976 0.047786 16711680
0.394579 0.120431 0.0478518 16711680
0.394381 0.121061 0.0475895 16711680
0.394036 0.121666 0.0471315 16711680
0.393988 0.122321 0.047067 16711680
0.393661 0.122931 0.0466338 16711680
0.393301 0.123535 0.0461571 16711680
0.393271 0.124193 0.0461165 16711680
0.393425 0.124881 0.0463197 16711680
0.393321 0.125527 0.0461816 16711680
0.392974 0.126134 0.0457213 16711680
0.392855 0.126778 0.0455627 16711680
0.392452 0.127377 0.0450289 16711680
0.391684 0.12792 0.0440128 16711680
0.390444 0.128389 0.0423722 16711680
0.38923 0.128864 0.0407662 16711680
0.388141 0.12936 0.039325 16711680
0.387649 0.12995 0.038674 16711680
