# .PCD v0.7 - Point Cloud Data file format
VERSION 0.7
FIELDS x y z rgb
SIZE 4 4 4 4
TYPE F F F F
COUNT 1 1 1 1
WIDTH 1244
HEIGHT 1
VIEWPOINT 0 0 0 1 0 0 0
POINTS 1244
DATA ascii
0.373735 -0.0154621 0.0539399 16711680
0.37393 -0.0147162 0.0541872 16711680
0.37446 -0.013867 0.0548663 16711680
0.375183 -0.0129596 0.0557921 16711680
0.375715 -0.0121119 0.0564733 16711680
0.375775 -0.0114098 0.0565473 16711680
0.375908 -0.0106854 0.0567158 16711680
0.375668 -0.0100753 0.0564044 16711680
0.375656 -0.00939572 0.0563855 16711680
0.374965 -0.00892216 0.0554943 16711680
0.373941 -0.00854853 0.0541753 16711680
0.373696 -0.00793833 0.0538567 16711680
0.373548 -0.00729841 0.053664 16711680
0.374666 -0.00627792 0.0550979 16711680
0.375463 -0.00535536 0.0561198 16711680
0.374844 -0.00485781 0.0553207 16711680
0.374574 -0.00425503 0.0549715 16711680
0.374326 -0.00364587 0.0546485 16711680
0.374033 -0.00304937 0.0542696 16711680
0.374261 -0.00229833 0.0545599 16711680
0.373914 -0.00171784 0.0541102 16711680
0.373846 -0.00105444 0.0540204 16711680
0.373546 -0.000459403 0.0536315 16711680
0.373665 0.000258893 0.0537817 16711680
0.373288 0.000831634 0.0532932 16711680
0.373367 0.00153798 0.0533917 16711680
0.373037 0.00212517 0.0529643 16711680
0.372722 0.0027172 0.0525571 16711680
0.371763 0.00312313 0.0513215 16711680
0.370324 0.00339165 0.0494684 16711680
0.37023 0.00404957 0.0493444 16711680
0.3716 0.005128 0.0511022 16711680
0.372679 0.00612125 0.0524873 16711680
0.373091 0.0069218 0.0530133 16711680
0.3734 0.0076924 0.0534074 16711680
0.373637 0.00844198 0.053709 16711680
0.373518 0.00909036 0.0535538 16711680
0.373609 0.00979808 0.053668 16711680
0.373754 0.0105207 0.0538511 16711680
0.373689 0.0111838 0.053764 16711680
0.374007 0.0119546 0.0541704 16711680
0.373953 0.0126206 0.0540977 16711680
0.374465 0.0134445 0.0547525 16711680
0.375924 0.0145315 0.0566263 16711680
0.376239 0.0152982 0.0570277 16711680
0.376004 0.0159124 0.056723 16711680
0.375961 0.0165795 0.0566645 16711680
0.375647 0.0171723 0.0562583 16711680
0.375489 0.0178079 0.0560515 16711680
0.375358 0.0184514 0.0558803 16711680
0.375168 0.0190786 0.0556325 16711680
0.375143 0.0197511 0.055598 16711680
0.375272 0.0204653 0.0557607 16711680
0.375991 0.0213391 0.0566821 16711680
0.376336 0.0221108 0.0571229 16711680
0.37613 0.0227333 0.0568553 16711680
0.375902 0.02335 0.0565588 16711680
0.375034 0.0237954 0.0554394 16711680
0.374498 0.0243307 0.0547472 16711680
0.374747 0.025076 0.0550642 16711680
0.374617 0.0257201 0.054894 16711680
0.374796 0.0264462 0.0551214 16711680
0.374476 0.0270402 0.0547074 16711680
0.374612 0.0277546 0.0548792 16711680
0.374237 0.0283343 0.0543938 16711680
0.374471 0.0290741 0.0546911 16711680
0.374152 0.029669 0.0542783 16711680
0.374385 0.0304082 0.0545752 16711680
0.374264 0.0310548 0.0544162 16711680
0.375651 0.0320924 0.0561969 16711680
0.377917 0.0333549 0.0591072 16711680
0.377644 0.0339597 0.058753 16711680
0.377387 0.0345692 0.0584202 16711680
0.376923 0.0351255 0.0578197 16711680
0.376388 0.0356646 0.0571294 16711680
0.376198 0.0362921 0.0568819 16711680
0.375797 0.0368662 0.0563636 16711680
0.375331 0.0374244 0.0557611 16711680
0.37527 0.0380854 0.0556796 16711680
0.375198 0.0387435 0.0555834 16711680
0.377681 0.0400434 0.058774 16711680
0.378115 0.0408262 0.0593277 16711680
0.377479 0.0413415 0.0585077 16711680
0.376435 0.0417561 0.0571623 16711680
0.372815 0.0455967 0.0524855 16711680
0.375805 -0.0390114 0.0556048 16711680
0.375025 -0.038585 0.0545986 16711680
0.375006 -0.0379029 0.0545702 16711680
0.374947 -0.0372338 0.0544918 16711680
0.375098 -0.0364949 0.0546827 16711680
0.375027 -0.0358301 0.0545889 16711680
0.37496 -0.035164 0.0544997 16711680
0.374825 -0.0345204 0.0543233 16711680
0.37478 -0.0338471 0.0542623 16711680
0.37448 -0.0332578 0.053874 16711680
0.374373 -0.0326045 0.0537342 16711680
0.374042 -0.0320252 0.0533044 16711680
0.373862 -0.0313957 0.0530704 16711680
0.373762 -0.0307401 0.0529385 16711680
0.373581 -0.0301105 0.0527034 16711680
0.373469 -0.0294588 0.0525556 16711680
0.373275 -0.0288332 0.0523038 16711680
0.373235 -0.0281579 0.052249 16711680
0.373067 -0.0275238 0.0520301 16711680
0.373089 -0.0268281 0.0520562 16711680
0.372929 -0.0261914 0.0518475 16711680
0.373095 -0.0254499 0.052058 16711680
0.372944 -0.0248103 0.0518608 16711680
0.373195 -0.0240421 0.0521808 16711680
0.373777 -0.0231688 0.0529273 16711680
0.374893 -0.0221268 0.05436 16711680
0.37636 -0.0209752 0.0562449 16711680
0.376657 -0.0201964 0.0566232 16711680
0.376295 -0.0196258 0.0561556 16711680
0.375655 -0.0191427 0.0553282 16711680
0.375276 -0.0185766 0.0548378 16711680
0.374721 -0.018065 0.0541216 16711680
0.374307 -0.0175089 0.0535858 16711680
0.374308 -0.0168226 0.0535846 16711680
0.374099 -0.0162018 0.0533129 16711680
0.374175 -0.0154925 0.0534071 16711680
0.374098 -0.0148306 0.0533054 16711680
0.374767 -0.0139384 0.054163 16711680
0.375321 -0.0130825 0.0548732 16711680
0.375759 -0.0122634 0.0554338 16711680
0.376137 -0.0114633 0.0559176 16711680
0.376633 -0.0106279 0.0565528 16711680
0.376864 -0.00987419 0.0568471 16711680
0.376812 -0.00920701 0.0567776 16711680
0.377058 -0.00844949 0.057091 16711680
0.376728 -0.00786686 0.0566639 16711680
0.376517 -0.0072479 0.0563897 16711680
0.376065 -0.00670147 0.0558052 16711680
0.376507 -0.00588572 0.0563704 16711680
0.376213 -0.0052914 0.055989 16711680
0.375484 -0.0048269 0.0550485 16711680
0.375218 -0.00422317 0.0547036 16711680
0.375035 -0.00359461 0.0544647 16711680
0.37497 -0.00293067 0.0543784 16711680
0.375001 -0.00223851 0.0544147 16711680
0.374913 -0.00158122 0.0542997 16711680
0.374683 -0.000966221 0.0540003 16711680
0.374378 -0.000372797 0.0536052 16711680
0.374475 0.000338674 0.0537266 16711680
0.374104 0.000913292 0.0532471 16711680
0.37425 0.00163886 0.0534313 16711680
0.373865 0.00220984 0.0529335 16711680
0.37382 0.00287986 0.0528725 16711680
0.373226 0.00339076 0.0521048 16711680
0.371486 0.00357145 0.049863 16711680
0.371485 0.00425568 0.0498587 16711680
0.373322 0.00546837 0.0522203 16711680
0.373262 0.00613409 0.0521399 16711680
0.374031 0.00703681 0.0531261 16711680
0.374362 0.00781354 0.0535495 16711680
0.374343 0.00849 0.053522 16711680
0.374442 0.00919992 0.0536464 16711680
0.374368 0.00986058 0.0535482 16711680
0.374629 0.0106159 0.0538813 16711680
0.374653 0.0113038 0.0539089 16711680
0.37546 0.0122116 0.0549446 16711680
0.376937 0.0133057 0.0568423 16711680
0.377107 0.0140325 0.0570585 16711680
0.376979 0.014676 0.0568912 16711680
0.376837 0.0153156 0.0567057 16711680
0.376507 0.0159033 0.0562783 16711680
0.376434 0.016562 0.0561804 16711680
0.376185 0.0171727 0.0558575 16711680
0.376014 0.0178048 0.0556343 16711680
0.375907 0.0184548 0.0554937 16711680
0.375698 0.0190768 0.055222 16711680
0.375621 0.0197353 0.0551207 16711680
0.375496 0.0203803 0.0549557 16711680
0.37592 0.0211746 0.0554991 16711680
0.376863 0.0221084 0.05671 16711680
0.377357 0.0229195 0.0573424 16711680
0.377084 0.0235236 0.0569881 16711680
0.376841 0.0241361 0.0566723 16711680
0.376093 0.0246137 0.0557067 16711680
0.375645 0.0251726 0.055128 16711680
0.375703 0.0258662 0.055199 16711680
0.375588 0.0265139 0.0550479 16711680
0.375666 0.0272129 0.0551455 16711680
0.375438 0.0278309 0.05485 16711680
0.3753 0.0284726 0.0546688 16711680
0.375288 0.0291475 0.0546499 16711680
0.37501 0.0297529 0.0542892 16711680
0.375223 0.0304868 0.0545614 16711680
0.376362 0.0314607 0.0560237 16711680
0.378553 0.032706 0.0588411 16711680
0.378548 0.0333797 0.0588307 16711680
0.378093 0.0339376 0.0582424 16711680
0.377997 0.0345884 0.0581167 16711680
0.377506 0.0351379 0.0574818 16711680
0.376898 0.0356581 0.0566963 16711680
0.376775 0.0363026 0.0565348 16711680
0.376418 0.0368879 0.0560728 16711680
0.376053 0.0374715 0.0555998 16711680
0.376089 0.0381567 0.0556425 16711680
0.377799 0.0392638 0.0578407 16711680
0.3787 0.040165 0.0589976 16711680
0.378486 0.0407854 0.0587193 16711680
0.377771 0.0412809 0.0577959 16711680
0.373158 0.0455493 0.0518346 16711680
0.37724 -0.038709 0.0563524 16711680
0.376337 -0.038325 0.0551866 16711680
0.375565 -0.0378956 0.0541897 16711680
0.375226 -0.0373205 0.0537498 16711680
0.375494 -0.0365423 0.0540919 16711680
0.375503 -0.0358505 0.0541018 16711680
0.375487 -0.0351675 0.0540783 16711680
0.375333 -0.0345302 0.0538774 16711680
0.375258 -0.0338667 0.0537781 16711680
0.374951 -0.03328 0.0533789 16711680
0.374808 -0.0326386 0.0531927 16711680
0.374578 -0.0320258 0.0528941 16711680
0.37444 -0.0313827 0.0527133 16711680
0.374344 -0.0307258 0.0525862 16711680
0.374155 -0.0300992 0.05234 16711680
0.374073 -0.0294375 0.0522317 16711680
0.373874 -0.0288135 0.0519737 16711680
0.373853 -0.0281321 0.0519429 16711680
0.373721 -0.0274864 0.0517707 16711680
0.373911 -0.0267369 0.0520121 16711680
0.373804 -0.0260834 0.0518711 16711680
0.374014 -0.025328 0.052139 16711680
0.374276 -0.0245563 0.0524737 16711680
0.374065 -0.0239363 0.0521995 16711680
0.374317 -0.0231684 0.0525212 16711680
0.374613 -0.0223872 0.0528992 16711680
0.376036 -0.0212485 0.0547301 16711680
0.377213 -0.0201902 0.0562423 16711680
0.377339 -0.0194657 0.0564021 16711680
0.377405 -0.0187604 0.0564845 16711680
0.376975 -0.0182112 0.0559282 16711680
0.376152 -0.0177849 0.0548652 16711680
0.375741 -0.0172285 0.0543325 16711680
0.375257 -0.0166943 0.0537068 16711680
0.374955 -0.0161029 0.053315 16711680
0.375057 -0.0153857 0.0534433 16711680
0.374783 -0.0147852 0.0530876 16711680
0.375103 -0.0140005 0.0534979 16711680
0.375332 -0.0132447 0.05379 16711680
0.375671 -0.0124555 0.0542239 16711680
0.376273 -0.0115862 0.0549963 16711680
0.376864 -0.0107214 0.0557541 16711680
0.377319 -0.00989881 0.0563383 16711680
0.377591 -0.00913319 0.0566847 16711680
0.378054 -0.00830951 0.0572793 16711680
0.377954 -0.00765762 0.0571479 16711680
0.377982 -0.00696698 0.0571812 16711680
0.377949 -0.00629511 0.0571347 16711680
0.37787 -0.00563681 0.0570308 16711680
0.377385 -0.00510067 0.0564026 16711680
0.376742 -0.00461105 0.0555717 16711680
0.376172 -0.00409862 0.0548356 16711680
0.375854 -0.00351053 0.0544231 16711680
0.375834 -0.00283366 0.0543936 16711680
0.375677 -0.00219721 0.0541892 16711680
0.375756 -0.00149098 0.0542878 16711680
0.37552 -0.000877649 0.053982 16711680
0.375409 -0.00022763 0.0538356 16711680
0.375247 0.000407726 0.0536246 16711680
0.374981 0.0010125 0.0532784 16711680
0.375103 0.00173098 0.0534325 16711680
0.374886 0.00235069 0.0531511 16711680
0.374795 0.00300682 0.0530304 16711680
0.374006 0.00346088 0.0520114 16711680
0.3735 0.00399795 0.0513574 16711680
0.374035 0.00483567 0.0520434 16711680
0.374457 0.00563997 0.0525841 16711680
0.372714 0.00582245 0.0503358 16711680
0.374826 0.00711051 0.0530534 16711680
0.375258 0.00791597 0.0536076 16711680
0.375127 0.00856015 0.0534352 16711680
0.375394 0.00931761 0.0537763 16711680
0.375828 0.0101219 0.0543331 16711680
0.377111 0.0111652 0.0559828 16711680
0.377997 0.0120946 0.0571209 16711680
0.377945 0.0127591 0.0570511 16711680
0.377889 0.0134223 0.0569758 16711680
0.377668 0.0140397 0.0566889 16711680
0.377431 0.0146526 0.0563806 16711680
0.377344 0.0153077 0.0562665 16711680
0.376987 0.0158878 0.0558038 16711680
0.376865 0.0165333 0.0556438 16711680
0.376696 0.0171658 0.0554228 16711680
0.376541 0.0178023 0.05522 16711680
0.376491 0.018468 0.0551535 16711680
0.376307 0.0190968 0.0549133 16711680
0.376114 0.0197234 0.0546621 16711680
0.375854 0.0203319 0.0543244 16711680
0.376076 0.0210714 0.054607 16711680
0.376884 0.0219691 0.0556449 16711680
0.377633 0.0228497 0.0566074 16711680
0.377897 0.0235983 0.0569439 16711680
0.378083 0.0243258 0.0571815 16711680
0.377567 0.0248648 0.0565135 16711680
0.376941 0.0253751 0.0557036 16711680
0.376882 0.0260372 0.055625 16711680
0.376319 0.0265657 0.0548971 16711680
0.37652 0.0272971 0.055154 16711680
0.376208 0.0278924 0.0547481 16711680
0.376187 0.0285648 0.0547184 16711680
0.375964 0.0291841 0.054428 16711680
0.376181 0.029919 0.0547051 16711680
0.377128 0.0308438 0.0559224 16711680
0.379412 0.0321149 0.0588611 16711680
0.379418 0.0327917 0.0588667 16711680
0.379119 0.0333894 0.0584791 16711680
0.378704 0.0339574 0.0579412 16711680
0.378323 0.0345347 0.0574477 16711680
0.377911 0.0351045 0.0569139 16711680
0.377433 0.0356579 0.0562955 16711680
0.377378 0.0363198 0.0562212 16711680
0.377044 0.0369108 0.0557885 16711680
0.376935 0.0375591 0.0556448 16711680
0.37843 0.0386131 0.0575674 16711680
0.379778 0.0396278 0.0593014 16711680
0.379196 0.0401552 0.0585488 16711680
0.378518 0.0406595 0.0576731 16711680
0.377657 0.0411188 0.0565611 16711680
0.379016 -0.0382916 0.057541 16711680
0.377593 -0.0380834 0.0557045 16711680
0.376358 -0.0378101 0.0541098 16711680
0.375608 -0.0373726 0.0531409 16711680
0.375647 -0.0366707 0.0531884 16711680
0.375883 -0.0359032 0.0534898 16711680
0.375995 -0.0351774 0.0536315 16711680
0.375795 -0.0345555 0.053371 16711680
0.375733 -0.0338878 0.053288 16711680
0.375444 -0.0332949 0.0529131 16711680
0.37531 -0.0326508 0.0527372 16711680
0.375141 -0.0320177 0.0525174 16711680
0.375039 -0.0313627 0.0523833 16711680
0.3749 -0.0307201 0.0522007 16711680
0.374784 -0.0300697 0.0520483 16711680
0.374705 -0.0294069 0.0519445 16711680
0.374613 -0.0287487 0.0518227 16711680
0.37453 -0.0280872 0.0517137 16711680
0.374741 -0.0273308 0.0519823 16711680
0.374834 -0.0266129 0.0520993 16711680
0.37499 -0.0258747 0.0522988 16711680
0.37493 -0.0252067 0.0522177 16711680
0.375179 -0.0244394 0.0525362 16711680
0.375021 -0.0238027 0.0523299 16711680
0.375198 -0.023059 0.0525557 16711680
0.375162 -0.0223835 0.0525069 16711680
0.375703 -0.0215249 0.0532011 16711680
0.376645 -0.0205402 0.0544126 16711680
0.377773 -0.0194979 0.0558647 16711680
0.378388 -0.0186196 0.0566543 16711680
0.378411 -0.0179282 0.056682 16711680
0.378169 -0.0173202 0.0563673 16711680
0.377359 -0.01689 0.0553205 16711680
0.376517 -0.0164686 0.054232 16711680
0.376355 -0.015834 0.0540209 16711680
0.376041 -0.0152469 0.0536124 16711680
0.375962 -0.0145861 0.0535089 16711680
0.375888 -0.013924 0.0534104 16711680
0.375838 -0.0132546 0.0533428 16711680
0.375954 -0.0125339 0.0534897 16711680
0.37645 -0.0116968 0.0541266 16711680
0.376877 -0.0108818 0.0546739 16711680
0.377294 -0.0100705 0.0552093 16711680
0.377859 -0.00921485 0.0559348 16711680
0.378462 -0.00834846 0.0567098 16711680
0.378613 -0.00762025 0.0569022 16711680
0.378582 -0.00694782 0.0568583 16711680
0.378606 -0.00625843 0.056887 16711680
0.378484 -0.00561327 0.0567272 16711680
0.378467 -0.00493643 0.0567029 16711680
0.378379 -0.00428113 0.0565863 16711680
0.378007 -0.00371042 0.0561047 16711680
0.377587 -0.00315383 0.0555601 16711680
0.376805 -0.00270432 0.0545492 16711680
0.376513 -0.00210834 0.0541704 16711680
0.376614 -0.00139603 0.0542967 16711680
0.376307 -0.000803888 0.0538992 16711680
0.37636 -0.000105619 0.0539649 16711680
0.376022 0.000477433 0.0535258 16711680
0.375987 0.00114971 0.0534773 16711680
0.375867 0.00179735 0.0533205 16711680
0.375847 0.00247419 0.0532925 16711680
0.375657 0.00310114 0.0530437 16711680
0.375133 0.00363186 0.0523664 16711680
0.375246 0.00434738 0.0525094 16711680
0.375486 0.00509915 0.0528159 16711680
0.375563 0.00580364 0.0529127 16711680
0.375201 0.00638163 0.0524422 16711680
0.375959 0.00728101 0.0534168 16711680
0.376783 0.00819787 0.0544763 16711680
0.377848 0.00918227 0.0558472 16711680
0.378791 0.01013 0.0570598 16711680
0.378838 0.0108228 0.0571187 16711680
0.378722 0.0114691 0.0569664 16711680
0.378672 0.0121338 0.0568981 16711680
0.378442 0.0127483 0.0565993 16711680
0.378313 0.0133913 0.0564306 16711680
0.378108 0.0140131 0.0561637 16711680
0.377801 0.0146064 0.0557648 16711680
0.377735 0.0152673 0.0556766 16711680
0.377489 0.0158782 0.055357 16711680
0.377408 0.0165351 0.0552498 16711680
0.377288 0.0171812 0.0550922 16711680
0.377228 0.0178438 0.0550119 16711680
0.377053 0.0184749 0.0547832 16711680
0.376937 0.0191223 0.0546309 16711680
0.376738 0.0197473 0.0543725 16711680
0.376508 0.0203637 0.0540721 16711680
0.376651 0.0210819 0.0542544 16711680
0.37692 0.0218337 0.0545981 16711680
0.377355 0.0226299 0.055156 16711680
0.378088 0.0235057 0.0560993 16711680
0.378803 0.0243754 0.0570185 16711680
0.37889 0.0250757 0.0571275 16711680
0.378658 0.0256906 0.0568254 16711680
0.37789 0.026163 0.0558321 16711680
0.377352 0.0266975 0.0551357 16711680
0.377436 0.0273976 0.0552416 16711680
0.377137 0.0279962 0.0548533 16711680
0.377198 0.02869 0.0549294 16711680
0.376992 0.0293134 0.054661 16711680
0.377777 0.0301964 0.0556699 16711680
0.380235 0.0315151 0.0588362 16711680
0.38012 0.0321603 0.058686 16711680
0.379946 0.0327899 0.058458 16711680
0.379622 0.0333811 0.0580378 16711680
0.379079 0.033916 0.057335 16711680
0.378788 0.0345166 0.0569571 16711680
0.378464 0.0351091 0.056537 16711680
0.378029 0.0356733 0.0559728 16711680
0.377926 0.0363229 0.0558369 16711680
0.377721 0.0369468 0.0555706 16711680
0.378867 0.0379134 0.0570451 16711680
0.380619 0.0390317 0.0593015 16711680
0.380399 0.0396498 0.0590152 16711680
0.37971 0.0401502 0.0581241 16711680
0.378745 0.0405822 0.0568768 16711680
0.37772 -0.0375333 0.0547657 16711680
0.376267 -0.0373325 0.0528871 16711680
0.375566 -0.0368778 0.0519807 16711680
0.376387 -0.0359148 0.0530368 16711680
0.376564 -0.0351673 0.0532627 16711680
0.376245 -0.0345846 0.0528498 16711680
0.376198 -0.0339121 0.0527853 16711680
0.375971 -0.0332987 0.0524901 16711680
0.375901 -0.0326334 0.0523971 16711680
0.375736 -0.0319993 0.0521815 16711680
0.375647 -0.0313399 0.052065 16711680
0.375534 -0.0306888 0.0519159 16711680
0.375638 -0.0299665 0.0520477 16711680
0.375416 -0.0293506 0.0517591 16711680
0.375549 -0.0286193 0.0519276 16711680
0.375492 -0.0279499 0.0518513 16711680
0.375745 -0.02718 0.0521755 16711680
0.375547 -0.0265563 0.0519179 16711680
0.37588 -0.0257614 0.0523447 16711680
0.375774 -0.0251084 0.0522048 16711680
0.376031 -0.0243386 0.0525342 16711680
0.376134 -0.0236189 0.0526638 16711680
0.376031 -0.0229649 0.0525287 16711680
0.376039 -0.0222756 0.0525366 16711680
0.376175 -0.0215457 0.0527099 16711680
0.376742 -0.0206795 0.053439 16711680
0.377641 -0.0197093 0.0545964 16711680
0.378768 -0.0186687 0.0560478 16711680
0.379355 -0.0177998 0.0568025 16711680
0.379189 -0.0171684 0.0565856 16711680
0.379117 -0.0165074 0.0564904 16711680
0.37864 -0.015973 0.055872 16711680
0.377835 -0.0155402 0.0548307 16711680
0.377222 -0.0150466 0.054037 16711680
0.377046 -0.0144165 0.0538079 16711680
0.376785 -0.0138128 0.0534678 16711680
0.376772 -0.0131321 0.0534484 16711680
0.376622 -0.0124935 0.0532531 16711680
0.376889 -0.0117269 0.0535946 16711680
0.376896 -0.0110405 0.0536008 16711680
0.37725 -0.010248 0.0540549 16711680
0.377813 -0.00939232 0.0547791 16711680
0.378319 -0.00855514 0.0554289 16711680
0.378496 -0.00781849 0.055655 16711680
0.378983 -0.00698861 0.05628 16711680
0.379006 -0.00629938 0.0563078 16711680
0.378972 -0.0056276 0.0562614 16711680
0.379009 -0.00493458 0.0563065 16711680
0.379087 -0.00422946 0.0564044 16711680
0.379448 -0.00344002 0.056867 16711680
0.378936 -0.00291151 0.0562038 16711680
0.378108 -0.00247633 0.0551331 16711680
0.378018 -0.00182107 0.0550141 16711680
0.377725 -0.00122592 0.0546331 16711680
0.377536 -0.000599533 0.0543872 16711680
0.377327 2.10404e-05 0.0541149 16711680
0.377011 0.000610381 0.0537047 16711680
0.377126 0.00132623 0.0538497 16711680
0.376944 0.00195509 0.053612 16711680
0.377024 0.00266084 0.0537137 16711680
0.376796 0.00327626 0.0534159 16711680
0.376998 0.00401703 0.0536745 16711680
0.377097 0.00472748 0.0537995 16711680
0.377256 0.00545505 0.0540024 16711680
0.377904 0.00632292 0.0548353 16711680
0.37934 0.00741619 0.0566859 16711680
0.379516 0.00814608 0.0569098 16711680
0.379527 0.00882879 0.0569222 16711680
0.379538 0.00951105 0.0569329 16711680
0.379424 0.0101578 0.0567831 16711680
0.379419 0.0108356 0.0567743 16711680
0.379231 0.0114616 0.0565296 16711680
0.379124 0.0121106 0.0563891 16711680
0.378895 0.0127252 0.056091 16711680
0.37873 0.0133578 0.0558743 16711680
0.378518 0.0139777 0.0555984 16711680
0.378198 0.0145676 0.0551827 16711680
0.378203 0.0152483 0.0551863 16711680
0.378027 0.0158788 0.0549569 16711680
0.377981 0.0165452 0.0548943 16711680
0.377833 0.0171835 0.0547007 16711680
0.377778 0.0178477 0.0546277 16711680
0.377614 0.0184817 0.0544127 16711680
0.37764 0.0191679 0.0544437 16711680
0.377489 0.0198059 0.0542469 16711680
0.377341 0.0204445 0.0540527 16711680
0.377422 0.0211456 0.0541546 16711680
0.377664 0.0218899 0.0544639 16711680
0.37767 0.0225702 0.054469 16711680
0.378297 0.0234176 0.0552756 16711680
0.378955 0.0242724 0.0561224 16711680
0.379605 0.025124 0.056959 16711680
0.379614 0.025803 0.0569675 16711680
0.379514 0.026453 0.0568358 16711680
0.37908 0.0270144 0.0562735 16711680
0.378362 0.027501 0.0553443 16711680
0.37839 0.0281857 0.0553778 16711680
0.378396 0.0288642 0.0553819 16711680
0.379489 0.0298285 0.0567901 16711680
0.380863 0.0308646 0.0585604 16711680
0.380873 0.0315422 0.0585706 16711680
0.380592 0.0321441 0.058206 16711680
0.380551 0.0328084 0.0581504 16711680
0.38013 0.0333742 0.0576036 16711680
0.379563 0.033903 0.0568697 16711680
0.379395 0.0345351 0.0566496 16711680
0.379054 0.0351232 0.0562075 16711680
0.378601 0.0356827 0.0556198 16711680
0.37862 0.0363635 0.0556418 16711680
0.379407 0.0372395 0.0566542 16711680
0.381276 0.0383891 0.0590638 16711680
0.381281 0.039064 0.0590676 16711680
0.380702 0.0395913 0.0583175 16711680
0.379933 0.0400718 0.0573232 16711680
0.378983 0.0405076 0.0560938 16711680
0.37756 0.0408266 0.0542548 16711680
0.380086 -0.0376056 0.0567217 16711680
0.379525 -0.0371073 0.055995 16711680
0.376634 -0.036012 0.0522527 16711680
0.377014 -0.0351964 0.0527419 16711680
0.376796 -0.0345806 0.052457 16711680
0.37682 -0.033884 0.0524864 16711680
0.376555 -0.0332835 0.0521412 16711680
0.376535 -0.0326017 0.0521131 16711680
0.376378 -0.0319652 0.0519073 16711680
0.376487 -0.0312411 0.0520455 16711680
0.376283 -0.0306199 0.0517794 16711680
0.376586 -0.0298325 0.0521688 16711680
0.376289 -0.0292417 0.0517823 16711680
0.376531 -0.028475 0.0520924 16711680
0.376397 -0.0278306 0.0519178 16711680
0.376558 -0.0270909 0.0521231 16711680
0.37641 -0.0264513 0.0519294 16711680
0.376606 -0.0257008 0.0521798 16711680
0.376812 -0.0249475 0.052443 16711680
0.376806 -0.0242625 0.052433 16711680
0.377005 -0.0235119 0.052688 16711680
0.376834 -0.02288 0.0524647 16711680
0.376872 -0.0221816 0.0525105 16711680
0.376789 -0.0215216 0.0524008 16711680
0.377168 -0.020715 0.052888 16711680
0.377547 -0.0199091 0.0533749 16711680
0.378287 -0.0189899 0.0543286 16711680
0.379112 -0.0180453 0.0553906 16711680
0.379809 -0.0171421 0.0562887 16711680
0.380149 -0.0163521 0.0567248 16711680
0.380004 -0.0157141 0.0565356 16711680
0.379827 -0.0150861 0.0563047 16711680
0.379308 -0.0145644 0.0556322 16711680
0.378362 -0.0141748 0.0544071 16711680
0.378088 -0.0135754 0.0540516 16711680
0.377749 -0.0129963 0.05361 16711680
0.377675 -0.0123347 0.0535125 16711680
0.377615 -0.011669 0.053432 16711680
0.377582 -0.0109948 0.0533873 16711680
0.377744 -0.0102611 0.0535944 16711680
0.378062 -0.0094803 0.0540018 16711680
0.378183 -0.00875995 0.0541552 16711680
0.378674 -0.00792724 0.054788 16711680
0.379144 -0.00710195 0.0553924 16711680
0.37894 -0.00648135 0.0551261 16711680
0.379131 -0.00574124 0.0553702 16711680
0.37912 -0.00506249 0.055353 16711680
0.379391 -0.00429901 0.0557007 16711680
0.380455 -0.00329876 0.0570728 16711680
0.380382 -0.00263974 0.0569755 16711680
0.379783 -0.00213706 0.0562001 16711680
0.3797 -0.00148052 0.0560905 16711680
0.380033 -0.000700772 0.0565178 16711680
0.379762 -0.000100136 0.0561651 16711680
0.379813 0.000595659 0.0562279 16711680
0.379636 0.00122428 0.0559964 16711680
0.379678 0.00191733 0.0560482 16711680
0.379517 0.00255111 0.0558387 16711680
0.379783 0.00330922 0.056179 16711680
0.379635 0.00394651 0.0559855 16711680
0.379987 0.00472915 0.0564381 16711680
0.380099 0.00544158 0.0565803 16711680
0.380084 0.00611684 0.0565575 16711680
0.380221 0.00683615 0.0567327 16711680
0.380094 0.00747907 0.0565658 16711680
0.38017 0.00818038 0.0566615 16711680
0.380017 0.00881585 0.0564609 16711680
0.380046 0.00950333 0.0564954 16711680
0.379856 0.0101286 0.0562481 16711680
0.37983 0.0108006 0.0562123 16711680
0.379613 0.0114182 0.0559288 16711680
0.37952 0.0120712 0.0558063 16711680
0.379334 0.0126978 0.0555627 16711680
0.37901 0.0132862 0.0551423 16711680
0.378972 0.0139549 0.0550907 16711680
0.37869 0.0145553 0.0547231 16711680
0.378711 0.0152406 0.0547478 16711680
0.378561 0.0158784 0.0545526 16711680
0.378549 0.0165543 0.0545343 16711680
0.378433 0.0172012 0.0543808 16711680
0.378568 0.0179175 0.0545527 16711680
0.37831 0.0185258 0.0542177 16711680
0.378374 0.0192221 0.0542967 16711680
0.378232 0.0198623 0.0541111 16711680
0.378505 0.0206156 0.054461 16711680
0.378332 0.0212472 0.0542355 16711680
0.378445 0.0219563 0.0543784 16711680
0.378286 0.0225918 0.0541705 16711680
0.378631 0.0233633 0.0546138 16711680
0.378865 0.0241043 0.0549136 16711680
0.379344 0.0249106 0.05553 16711680
0.380139 0.0258003 0.0565537 16711680
0.380569 0.0265917 0.0571066 16711680
0.380351 0.02721 0.0568228 16711680
0.380248 0.027859 0.0566872 16711680
0.380101 0.0284963 0.0564941 16711680
0.381417 0.0295196 0.0581918 16711680
0.381783 0.0302911 0.0586623 16711680
0.38147 0.0308837 0.0582548 16711680
0.381391 0.0315381 0.0581505 16711680
0.381102 0.0321377 0.0577748 16711680
0.380903 0.0327611 0.0575154 16711680
0.380636 0.0333669 0.0571675 16711680
0.380101 0.0339037 0.0564735 16711680
0.380012 0.0345563 0.0563558 16711680
0.379552 0.0351135 0.0557591 16711680
0.3793 0.0357247 0.0554316 16711680
0.379862 0.036544 0.0561545 16711680
0.382116 0.0377935 0.0590636 16711680
0.381907 0.0384139 0.0587909 16711680
0.381535 0.0389933 0.0583082 16711680
0.381109 0.0395594 0.0577552 16711680
0.380118 0.0399837 0.0564718 16711680
0.379099 0.0404023 0.0551524 16711680
0.381144 -0.0374299 0.056989 16711680
0.380471 -0.0369699 0.0561165 16711680
0.37981 -0.0365048 0.0552602 16711680
0.378184 -0.036362 0.0531557 16711680
0.377142 -0.0360218 0.0518064 16711680
0.377281 -0.0352868 0.0519831 16711680
0.377328 -0.0345825 0.0520416 16711680
0.377517 -0.0338314 0.0522838 16711680
0.377268 -0.0332257 0.0519588 16711680
0.377311 -0.0325232 0.0520122 16711680
0.377257 -0.031853 0.0519397 16711680
0.377356 -0.0311321 0.0520661 16711680
0.377043 -0.030547 0.0516586 16711680
0.377288 -0.0297791 0.0519723 16711680
0.377213 -0.0291156 0.0518737 16711680
0.377288 -0.0284035 0.0519685 16711680
0.377274 -0.0277207 0.0519477 16711680
0.377216 -0.0270522 0.0518701 16711680
0.377308 -0.0263352 0.0519862 16711680
0.377309 -0.0256476 0.051986 16711680
0.377605 -0.0248652 0.0523665 16711680
0.377483 -0.024218 0.0522051 16711680
0.377776 -0.0234374 0.0525815 16711680
0.377705 -0.0227736 0.0524882 16711680
0.377843 -0.0220434 0.0526637 16711680
0.377738 -0.0213907 0.0525259 16711680
0.377762 -0.0206972 0.0525538 16711680
0.377931 -0.0199575 0.0527709 16711680
0.378232 -0.0191768 0.0531572 16711680
0.378884 -0.0182861 0.0539972 16711680
0.379789 -0.0173168 0.0551652 16711680
0.380522 -0.0164029 0.0561105 16711680
0.380974 -0.0155783 0.0566915 16711680
0.380906 -0.0149165 0.056602 16711680
0.38091 -0.0142326 0.0566044 16711680
0.380637 -0.0136348 0.0562485 16711680
0.380049 -0.0131343 0.055486 16711680
0.379109 -0.0127418 0.0542685 16711680
0.378795 -0.0121548 0.0538608 16711680
0.37852 -0.0115556 0.0535029 16711680
0.378624 -0.0108398 0.0536346 16711680
0.378557 -0.0101765 0.053546 16711680
0.378522 -0.00950357 0.053498 16711680
0.378543 -0.00881377 0.0535218 16711680
0.378891 -0.00802431 0.0539702 16711680
0.37914 -0.00726578 0.0542893 16711680
0.379183 -0.00656992 0.0543427 16711680
0.379281 -0.00585786 0.0544664 16711680
0.379156 -0.0052129 0.0543025 16711680
0.379365 -0.00446758 0.0545707 16711680
0.381073 -0.0032739 0.0567762 16711680
0.381132 -0.00257546 0.0568501 16711680
0.380832 -0.00198418 0.0564597 16711680
0.380836 -0.00130236 0.0564616 16711680
0.38089 -0.000605494 0.0565296 16711680
0.380993 0.000105411 0.0566599 16711680
0.3809 0.00075835 0.0565373 16711680
0.381095 0.00149602 0.0567868 16711680
0.380829 0.0020982 0.0564413 16711680
0.380892 0.00279671 0.05652 16711680
0.380727 0.00342861 0.0563043 16711680
0.380841 0.0041419 0.0564494 16711680
0.380681 0.0047752 0.05624 16711680
0.380726 0.00546789 0.0562947 16711680
0.380594 0.00610954 0.0561221 16711680
0.380673 0.00681207 0.056222 16711680
0.380519 0.00744745 0.0560209 16711680
0.380613 0.00815392 0.0561396 16711680
0.380419 0.00877774 0.0558861 16711680
0.380479 0.00947437 0.0559615 16711680
0.380232 0.0100832 0.055639 16711680
0.380172 0.0107456 0.0555595 16711680
0.379968 0.0113671 0.0552926 16711680
0.379741 0.0119823 0.0549968 16711680
0.37965 0.0126363 0.0548775 16711680
0.379404 0.0132465 0.0545568 16711680
0.379428 0.0139327 0.0545855 16711680
0.379219 0.0145536 0.0543125 16711680
0.379227 0.015235 0.0543195 16711680
0.379085 0.015875 0.0541341 16711680
0.379257 0.0166018 0.0543534 16711680
0.379159 0.0172538 0.0542246 16711680
0.379365 0.0179897 0.0544888 16711680
0.379293 0.0186487 0.0543933 16711680
0.379438 0.0193671 0.0545778 16711680
0.379137 0.0199631 0.0541856 16711680
0.379354 0.020701 0.054464 16711680
0.379149 0.0213235 0.0541964 16711680
0.379352 0.0220572 0.0544572 16711680
0.379229 0.0227019 0.0542949 16711680
0.379273 0.0233919 0.0543491 16711680
0.379175 0.0240435 0.0542196 16711680
0.379542 0.0248201 0.0546927 16711680
0.380184 0.0256693 0.0555193 16711680
0.380973 0.0265567 0.0565368 16711680
0.381948 0.0274924 0.057795 16711680
0.38202 0.0281871 0.0578856 16711680
0.382475 0.0289828 0.0584714 16711680
0.382653 0.0297048 0.0586997 16711680
0.382208 0.0302625 0.058122 16711680
0.381827 0.0308373 0.0576261 16711680
0.381765 0.0314961 0.0575433 16711680
0.381532 0.0321105 0.0572401 16711680
0.381478 0.0327715 0.0571671 16711680
0.381096 0.0333474 0.0566705 16711680
0.380651 0.0339076 0.0560929 16711680
0.380549 0.0345568 0.0559586 16711680
0.380183 0.0351381 0.0554825 16711680
0.380726 0.035953 0.0561825 16711680
0.382748 0.0371449 0.0587939 16711680
0.38288 0.0378523 0.0589631 16711680
0.382374 0.0383969 0.0583059 16711680
0.3819 0.0389505 0.057691 16711680
0.381185 0.0394435 0.0567631 16711680
0.380006 0.0398208 0.0552367 16711680
0.378655 0.0401563 0.0534865 16711680
0.377181 0.0404632 0.0515788 16711680
0.375783 0.0407909 0.049768 16711680
0.381239 -0.0362054 0.056007 16711680
0.380508 -0.035764 0.0550584 16711680
0.378806 -0.0356458 0.0528539 16711680
0.378036 -0.0352145 0.0518558 16711680
0.378129 -0.0344952 0.0519731 16711680
0.378457 -0.0336981 0.0523955 16711680
0.378209 -0.0330924 0.0520718 16711680
0.378122 -0.032433 0.0519576 16711680
0.378079 -0.0317592 0.0518998 16711680
0.378148 -0.0310487 0.0519869 16711680
0.378129 -0.0303673 0.0519598 16711680
0.378056 -0.0297037 0.0518626 16711680
0.378157 -0.0289832 0.0519907 16711680
0.378152 -0.0282975 0.051982 16711680
0.378463 -0.0275091 0.0523825 16711680
0.378136 -0.0269282 0.0519571 16711680
0.378323 -0.0261808 0.0521963 16711680
0.378035 -0.025587 0.0518215 16711680
0.378398 -0.0247832 0.0522888 16711680
0.378284 -0.0241334 0.0521387 16711680
0.378533 -0.023367 0.0524586 16711680
0.378522 -0.0226842 0.052443 16711680
0.378565 -0.0219845 0.0524957 16711680
0.378669 -0.0212654 0.052628 16711680
0.378557 -0.0206152 0.0524811 16711680
0.378619 -0.0199101 0.0525581 16711680
0.378577 -0.0192377 0.0525019 16711680
0.379142 -0.0183741 0.0532303 16711680
0.379646 -0.0175306 0.0538799 16711680
0.380216 -0.0166671 0.0546161 16711680
0.380901 -0.0157687 0.0554999 16711680
0.381427 -0.0149212 0.0561777 16711680
0.381662 -0.014165 0.0564802 16711680
0.38161 -0.0134988 0.0564102 16711680
0.381688 -0.0127921 0.0565089 16711680
0.381316 -0.0122249 0.0560253 16711680
0.381067 -0.0116192 0.055701 16711680
0.380459 -0.011124 0.0549116 16711680
0.379654 -0.0106882 0.0538678 16711680
0.379459 -0.0100647 0.0536127 16711680
0.379509 -0.00936586 0.0536757 16711680
0.379358 -0.00872892 0.0534768 16711680
0.379409 -0.00803 0.0535409 16711680
0.379442 -0.00733683 0.0535814 16711680
0.379579 -0.00661257 0.0537556 16711680
0.379595 -0.00592491 0.0537741 16711680
0.3795 -0.00527075 0.0536493 16711680
0.379634 -0.00454792 0.0538203 16711680
0.381623 -0.00326955 0.0563914 16711680
0.381693 -0.00256768 0.0564802 16711680
0.381373 -0.00198248 0.0560634 16711680
0.381289 -0.00132674 0.055952 16711680
0.381281 -0.00064829 0.0559397 16711680
0.381233 1.80304e-05 0.0558745 16711680
0.381144 0.000672519 0.0557576 16711680
0.381241 0.0013817 0.0558811 16711680
0.381149 0.00203478 0.0557586 16711680
0.381194 0.00272828 0.0558144 16711680
0.381043 0.00336444 0.055617 16711680
0.381144 0.00407422 0.055746 16711680
0.381023 0.00471893 0.0555863 16711680
0.381039 0.0054037 0.0556054 16711680
0.380935 0.00605348 0.0554682 16711680
0.380954 0.00673869 0.0554898 16711680
0.380821 0.00738019 0.0553155 16711680
0.380781 0.00804842 0.0552611 16711680
0.380711 0.00870827 0.0551692 16711680
0.380614 0.00936016 0.0550412 16711680
0.380575 0.0100286 0.0549883 16711680
0.380445 0.0106711 0.0548173 16711680
0.380337 0.0113199 0.0546749 16711680
0.380158 0.0119488 0.0544406 16711680
0.380185 0.0126359 0.0544733 16711680
0.379888 0.0132318 0.0540862 16711680
0.37987 0.0139064 0.0540614 16711680
0.379647 0.0145234 0.0537697 16711680
0.379711 0.0152207 0.0538505 16711680
0.37963 0.0158774 0.053743 16711680
0.379935 0.0166414 0.0541357 16711680
0.380103 0.0173666 0.0543499 16711680
0.380234 0.0180815 0.0545175 16711680
0.380588 0.0188574 0.0549731 16711680
0.38036 0.0194731 0.0546761 16711680
0.380373 0.0201548 0.05469 16711680
0.380262 0.0208027 0.0545447 16711680
0.380349 0.0215042 0.0546536 16711680
0.380229 0.0221498 0.0544969 16711680
0.380258 0.0228355 0.0545319 16711680
0.380111 0.0234736 0.0543392 16711680
0.380019 0.0241266 0.0542176 16711680
0.380039 0.0248097 0.0542412 16711680
0.380305 0.0255585 0.0545825 16711680
0.380991 0.0264188 0.0554674 16711680
0.382621 0.0275296 0.0575755 16711680
0.383477 0.0284322 0.058681 16711680
0.383275 0.0290533 0.0584166 16711680
0.382868 0.0296206 0.0578872 16711680
0.382525 0.0302052 0.0574409 16711680
0.382219 0.0308 0.0570426 16711680
0.38221 0.0314728 0.0570283 16711680
0.381989 0.0320904 0.0567405 16711680
0.381755 0.0327046 0.0564346 16711680
0.381509 0.033316 0.0561141 16711680
0.381175 0.033905 0.0556797 16711680
0.381135 0.0345699 0.0556244 16711680
0.381419 0.0353184 0.0559896 16711680
0.383626 0.0365598 0.0588441 16711680
0.38352 0.0372061 0.0587045 16711680
0.383302 0.0378238 0.0584199 16711680
0.382727 0.0383509 0.0576726 16711680
0.381911 0.0388178 0.056615 16711680
0.380969 0.0392537 0.0553926 16711680
0.380117 0.0397139 0.0542885 16711680
0.378389 0.0399549 0.0520495 16711680
0.377215 0.0403371 0.0505266 16711680
0.375533 0.0405941 0.0483478 16711680
0.38167 -0.0355545 0.0554613 16711680
0.380873 -0.0351345 0.0544273 16711680
0.37931 -0.034969 0.0524005 16711680
0.378635 -0.0345059 0.0515237 16711680
0.379285 -0.0336016 0.0523639 16711680
0.379383 -0.0328814 0.0524888 16711680
0.379028 -0.0323112 0.052027 16711680
0.379162 -0.0315794 0.0521982 16711680
0.378873 -0.0309871 0.0518214 16711680
0.37903 -0.030248 0.0520227 16711680
0.378936 -0.0295915 0.0518986 16711680
0.379116 -0.0288455 0.0521289 16711680
0.378996 -0.0281975 0.0519719 16711680
0.379197 -0.0274451 0.0522298 16711680
0.378937 -0.0268428 0.0518905 16711680
0.379133 -0.0260926 0.0521418 16711680
0.378913 -0.0254769 0.0518553 16711680
0.37909 -0.0247332 0.0520825 16711680
0.379069 -0.0240538 0.0520525 16711680
0.379243 -0.0233116 0.0522758 16711680
0.379463 -0.022555 0.0525589 16711680
0.3793 -0.0219214 0.0523453 16711680
0.379472 -0.0211808 0.0525657 16711680
0.379328 -0.0205412 0.0523764 16711680
0.379561 -0.0197815 0.0526768 16711680
0.379347 -0.0191639 0.0523974 16711680
0.37966 -0.0183798 0.0528008 16711680
0.379731 -0.0176726 0.0528898 16711680
0.380134 -0.0168613 0.0534093 16711680
0.380746 -0.0159853 0.0541996 16711680
0.38144 -0.0150844 0.0550965 16711680
0.381978 -0.0142335 0.0557911 16711680
0.382115 -0.0135083 0.055966 16711680
0.382554 -0.0126895 0.0565325 16711680
0.382537 -0.0120126 0.0565088 16711680
0.382552 -0.011326 0.0565259 16711680
0.382428 -0.0106824 0.0563631 16711680
0.382353 -0.0100237 0.0562636 16711680
0.381631 -0.00956327 0.0553261 16711680
0.380815 -0.00913063 0.054267 16711680
0.380666 -0.00849345 0.0540714 16711680
0.380407 -0.00788969 0.0537331 16711680
0.380536 -0.00716752 0.053899 16711680
0.380291 -0.00655931 0.0535785 16711680
0.380369 -0.00585309 0.0536773 16711680
0.380262 -0.00520286 0.0535364 16711680
0.381877 -0.004035 0.0556259 16711680
0.382427 -0.00318903 0.0563356 16711680
0.382219 -0.00257036 0.0560648 16711680
0.381923 -0.00197795 0.0556796 16711680
0.381756 -0.00134704 0.0554601 16711680
0.38172 -0.000676811 0.0554116 16711680
0.381612 -2.79844e-05 0.0552698 16711680
0.381519 0.000625044 0.055146 16711680
0.38143 0.00127947 0.0550284 16711680
0.381424 0.00195864 0.0550195 16711680
0.381293 0.00260073 0.0548475 16711680
0.381337 0.0032939 0.0549014 16711680
0.381296 0.00396243 0.0548464 16711680
0.381321 0.00464985 0.0548757 16711680
0.381244 0.00530782 0.0547743 16711680
0.381282 0.00599888 0.0548208 16711680
0.381144 0.00663918 0.0546404 16711680
0.381164 0.00732481 0.0546634 16711680
0.381032 0.00796694 0.0544907 16711680
0.381139 0.00867742 0.0546269 16711680
0.38094 0.00930023 0.0543667 16711680
0.380995 0.00999552 0.0544351 16711680
0.3809 0.0106482 0.05431 16711680
0.380846 0.0113124 0.0542376 16711680
0.380643 0.0119346 0.053973 16711680
0.380618 0.0126072 0.0539385 16711680
0.380324 0.0132039 0.0535549 16711680
0.380205 0.0138502 0.053399 16711680
0.380028 0.01448 0.0531664 16711680
0.379804 0.0150972 0.0528743 16711680
0.380048 0.0158448 0.0531884 16711680
0.380388 0.0166185 0.0536265 16711680
0.380521 0.0173342 0.0537961 16711680
0.380791 0.0180875 0.0541435 16711680
0.381694 0.0190147 0.0553112 16711680
0.381672 0.0196863 0.0552802 16711680
0.381466 0.0203075 0.055011 16711680
0.381063 0.0208751 0.0544864 16711680
0.381195 0.021589 0.0546554 16711680
0.380981 0.0222085 0.0543754 16711680
0.381001 0.0228917 0.0543991 16711680
0.380907 0.0235438 0.0542743 16711680
0.38093 0.0242278 0.0543026 16711680
0.380677 0.0248373 0.0539725 16711680
0.380899 0.0255741 0.0542572 16711680
0.382341 0.0266367 0.0561233 16711680
0.384065 0.0277718 0.0583534 16711680
0.384102 0.0284565 0.0583999 16711680
0.383677 0.0290184 0.057846 16711680
0.383079 0.0295354 0.0570698 16711680
0.382985 0.0301858 0.0569453 16711680
0.382698 0.0307854 0.0565708 16711680
0.382685 0.0314574 0.0565522 16711680
0.382479 0.0320787 0.0562824 16711680
0.382239 0.0326914 0.0559694 16711680
0.382048 0.0333172 0.0557204 16711680
0.38174 0.0339128 0.0553188 16711680
0.382237 0.0347164 0.0559597 16711680
0.384292 0.0359204 0.0586193 16711680
0.384293 0.036594 0.0586182 16711680
0.383917 0.0371712 0.0581295 16711680
0.38361 0.0377661 0.0577285 16711680
0.383037 0.0382939 0.0569842 16711680
0.382165 0.0387465 0.0558517 16711680
0.380934 0.0391098 0.054256 16711680
0.379864 0.0395149 0.0528665 16711680
0.378446 0.0398343 0.0510278 16711680
0.377098 0.0401733 0.0492797 16711680
0.382901 -0.0353215 0.0559553 16711680
0.382649 -0.0347201 0.055626 16711680
0.381576 -0.0343922 0.0542332 16711680
0.380096 -0.0341984 0.0523126 16711680
0.379678 -0.0336498 0.0517683 16711680
0.38022 -0.0327824 0.0524687 16711680
0.379992 -0.0321703 0.0521718 16711680
0.380053 -0.0314628 0.0522488 16711680
0.379968 -0.0308037 0.0521363 16711680
0.379886 -0.0301436 0.0520273 16711680
0.3798 -0.0294845 0.0519143 16711680
0.379867 -0.0287756 0.0519989 16711680
0.379844 -0.0280963 0.0519664 16711680
0.379963 -0.0273708 0.0521187 16711680
0.379904 -0.0267033 0.0520405 16711680
0.379946 -0.0260032 0.0520927 16711680
0.379928 -0.0253227 0.0520668 16711680
0.379862 -0.0246577 0.0519793 16711680
0.379979 -0.0239337 0.0521294 16711680
0.379946 -0.0232585 0.0520836 16711680
0.380178 -0.022498 0.0523832 16711680
0.38002 -0.0218631 0.0521752 16711680
0.380257 -0.0211017 0.0524811 16711680
0.380222 -0.0204276 0.0524328 16711680
0.380393 -0.0196879 0.0526532 16711680
0.380385 -0.0190054 0.0526406 16711680
0.3804 -0.018316 0.0526568 16711680
0.380328 -0.0176537 0.0525619 16711680
0.38051 -0.0169118 0.0527955 16711680
0.381027 -0.0160652 0.0534635 16711680
0.381245 -0.015313 0.053744 16711680
0.381541 -0.014537 0.0541252 16711680
0.382239 -0.0136363 0.0550281 16711680
0.382756 -0.0127928 0.0556971 16711680
0.383052 -0.0120188 0.0560787 16711680
0.38316 -0.0113037 0.0562154 16711680
0.383537 -0.0105056 0.0567025 16711680
0.383282 -0.00990263 0.0563698 16711680
0.383635 -0.00911298 0.0568249 16711680
0.383395 -0.00850528 0.0565118 16711680
0.38359 -0.00776452 0.0567626 16711680
0.383097 -0.00723374 0.0561212 16711680
0.38276 -0.00665498 0.0556821 16711680
0.382635 -0.00601164 0.0555172 16711680
0.382582 -0.00534627 0.0554466 16711680
0.383051 -0.00452355 0.0560529 16711680
0.383401 -0.00373757 0.0565042 16711680
0.382925 -0.00320008 0.0558844 16711680
0.382669 -0.00259596 0.0555506 16711680
0.382444 -0.00198233 0.0552568 16711680
0.382209 -0.00137135 0.0549506 16711680
0.382236 -0.000682563 0.0549829 16711680
0.38206 -5.40614e-05 0.0547521 16711680
0.381995 0.000607461 0.0546656 16711680
0.38184 0.00124249 0.0544624 16711680
0.381787 0.00190771 0.0543917 16711680
0.381678 0.00255629 0.0542479 16711680
0.381727 0.0032514 0.0543096 16711680
0.3816 0.00389484 0.0541426 16711680
0.381715 0.00460869 0.0542891 16711680
0.381669 0.00527579 0.0542279 16711680
0.381686 0.00596103 0.0542483 16711680
0.381583 0.0066112 0.0541116 16711680
0.38164 0.00730774 0.0541837 16711680
0.381531 0.0079563 0.0540397 16711680
0.381578 0.00864968 0.0540985 16711680
0.381458 0.00929523 0.053941 16711680
0.381473 0.00997919 0.0539581 16711680
0.381359 0.0106263 0.0538075 16711680
0.381353 0.0113043 0.0537978 16711680
0.381213 0.0119443 0.0536146 16711680
0.381142 0.0126039 0.0535207 16711680
0.380699 0.0131586 0.0529437 16711680
0.380162 0.0136877 0.0522454 16711680
0.380079 0.0143444 0.0521353 16711680
0.379886 0.0149703 0.0518821 16711680
0.380116 0.0157146 0.0521793 16711680
0.381009 0.0166421 0.0533342 16711680
0.380848 0.0172763 0.0531229 16711680
0.38103 0.0180055 0.0533563 16711680
0.382698 0.0191436 0.0555166 16711680
0.383025 0.0199108 0.0559385 16711680
0.382476 0.0204376 0.0552254 16711680
0.382123 0.0210185 0.0547651 16711680
0.381954 0.0216498 0.054543 16711680
0.381749 0.0222717 0.0542753 16711680
0.381699 0.0229356 0.054208 16711680
0.381511 0.0235624 0.0539626 16711680
0.381617 0.0242685 0.0540972 16711680
0.381813 0.0249985 0.0543492 16711680
0.384053 0.0262758 0.0572509 16711680
0.384906 0.0271791 0.0583547 16711680
0.384684 0.0277946 0.0580646 16711680
0.384564 0.0284374 0.0579071 16711680
0.384052 0.0289763 0.0572405 16711680
0.383508 0.0295075 0.0565331 16711680
0.383431 0.0301625 0.0564312 16711680
0.38323 0.030785 0.0561688 16711680
0.383132 0.0314344 0.0560385 16711680
0.382976 0.032069 0.055835 16711680
0.382753 0.0326861 0.0555427 16711680
0.382684 0.0333436 0.0554519 16711680
0.383666 0.0342731 0.0567224 16711680
0.385124 0.0353242 0.0586104 16711680
0.385097 0.0359904 0.0585725 16711680
0.384764 0.0365782 0.0581396 16711680
0.384236 0.0371161 0.0574517 16711680
0.383591 0.037625 0.0566133 16711680
0.382782 0.0380929 0.0555619 16711680
0.382232 0.038628 0.0548471 16711680
0.380881 0.0389607 0.0530931 16711680
0.380088 0.0394362 0.0520624 16711680
0.378727 0.03977 0.0502958 16711680
0.37748 0.0401342 0.0486766 16711680
0.376493 0.041922 0.0473893 16711680
0.376838 0.042686 0.0478351 16711680
0.383608 -0.0345785 0.0557684 16711680
0.383062 -0.034075 0.055059 16711680
0.381868 -0.033787 0.0535072 16711680
0.380845 -0.0334405 0.0521775 16711680
0.380883 -0.0327406 0.0522245 16711680
0.380928 -0.0320385 0.0522811 16711680
0.380918 -0.0313548 0.0522658 16711680
0.380806 -0.0307047 0.0521188 16711680
0.380764 -0.0300315 0.0520626 16711680
0.380811 -0.0293292 0.0521215 16711680
0.380661 -0.0286915 0.0519251 16711680
0.380772 -0.0279687 0.0520669 16711680
0.38069 -0.0273089 0.0519583 16711680
0.380875 -0.0265625 0.052196 16711680
0.380788 -0.0259044 0.0520811 16711680
0.380895 -0.0251835 0.0522183 16711680
0.380677 -0.024568 0.0519332 16711680
0.380846 -0.0238276 0.0521501 16711680
0.380635 -0.0232096 0.0518744 16711680
0.380893 -0.0224411 0.0522071 16711680
0.380873 -0.021762 0.0521791 16711680
0.381049 -0.0210204 0.0524057 16711680
0.381178 -0.0202942 0.0525707 16711680
0.381104 -0.0196326 0.0524731 16711680
0.381148 -0.0189338 0.0525278 16711680
0.381126 -0.0182561 0.0524968 16711680
0.381271 -0.0175256 0.0526831 16711680
0.381131 -0.0168852 0.0524995 16711680
0.381402 -0.0161157 0.0528492 16711680
0.381546 -0.0153866 0.0530334 16711680
0.381888 -0.0145958 0.0534755 16711680
0.382244 -0.0138015 0.0539349 16711680
0.382627 -0.0129994 0.0544297 16711680
0.3829 -0.0122319 0.0547823 16711680
0.383465 -0.0113747 0.0555133 16711680
0.383613 -0.0106471 0.0557032 16711680
0.383795 -0.00990942 0.0559372 16711680
0.384482 -0.0090172 0.0568261 16711680
0.384523 -0.00832358 0.0568781 16711680
0.384525 -0.00764224 0.0568784 16711680
0.384565 -0.00694963 0.0569274 16711680
0.384459 -0.00630122 0.0567883 16711680
0.384534 -0.00559795 0.0568841 16711680
0.3843 -0.00498849 0.0565779 16711680
0.384193 -0.00434032 0.0564375 16711680
0.383925 -0.00374082 0.0560867 16711680
0.383344 -0.00323468 0.0553312 16711680
0.38307 -0.00263605 0.0549732 16711680
0.382921 -0.00199965 0.0547781 16711680
0.38277 -0.00136369 0.0545803 16711680
0.382735 -0.000693351 0.0545324 16711680
0.382525 -7.47144e-05 0.0542581 16711680
0.382483 0.000593424 0.0542004 16711680
0.382361 0.00123829 0.0540403 16711680
0.38227 0.00189227 0.05392 16711680
0.382174 0.00254488 0.0537935 16711680
0.38217 0.00322446 0.0537868 16711680
0.382151 0.00389951 0.0537601 16711680
0.38221 0.00459707 0.0538341 16711680
0.382134 0.00525525 0.053733 16711680
0.382222 0.005961 0.053845 16711680
0.382143 0.0066182 0.05374 16711680
0.382182 0.00730956 0.0537887 16711680
0.382072 0.00795794 0.0536442 16711680
0.382092 0.00864342 0.0536673 16711680
0.382006 0.00929871 0.0535541 16711680
0.382014 0.00998083 0.0535626 16711680
0.381913 0.0106317 0.0534291 16711680
0.381966 0.0113262 0.0534953 16711680
0.381776 0.0119521 0.0532475 16711680
0.381619 0.0125872 0.0530412 16711680
0.380915 0.0130685 0.0521252 16711680
0.384334 0.0201237 0.0565426 16711680
0.383721 0.0206322 0.0557451 16711680
0.383228 0.0211743 0.0551034 16711680
0.382697 0.0217066 0.0544122 16711680
0.382515 0.0223344 0.0541735 16711680
0.382473 0.0230004 0.0541166 16711680
0.382789 0.0237633 0.0545251 16711680
0.38349 0.0246293 0.0554327 16711680
0.385566 0.0258637 0.0581239 16711680
0.385575 0.0265409 0.058134 16711680
0.385456 0.0271836 0.0579767 16711680
0.385089 0.0277604 0.0574986 16711680
0.384841 0.0283692 0.0571744 16711680
0.384354 0.028915 0.0565405 16711680
0.38402 0.0295017 0.0561047 16711680
0.38399 0.030169 0.0560634 16711680
0.383784 0.0307901 0.0557938 16711680
0.383708 0.0314454 0.0556933 16711680
0.383486 0.0320626 0.055403 16711680
0.383404 0.0327165 0.0552948 16711680
0.385303 0.0338853 0.0577562 16711680
0.386146 0.0347775 0.0588483 16711680
0.3858 0.0353611 0.0583972 16711680
0.385503 0.0359577 0.0580096 16711680
0.3851 0.0365275 0.0574849 16711680
0.384557 0.0370618 0.0567778 16711680
0.383675 0.0375102 0.0556313 16711680
0.38277 0.0379539 0.054454 16711680
0.381803 0.0383831 0.0531967 16711680
0.38087 0.0388222 0.0519832 16711680
0.380615 0.039434 0.0516508 16711680
0.379035 0.0397122 0.0495974 16711680
0.3773 0.0413108 0.0473396 16711680
0.378059 0.0421778 0.048322 16711680
0.377916 0.04282 0.0481347 16711680
0.384256 -0.0345407 0.0555086 16711680
0.384384 -0.0338123 0.0556731 16711680
0.383904 -0.0332871 0.0550476 16711680
0.382704 -0.0330008 0.0534868 16711680
