# .PCD v0.7 - Point Cloud Data file format
VERSION 0.7
FIELDS x y z rgb
SIZE 4 4 4 4
TYPE F F F F
COUNT 1 1 1 1
WIDTH 1269
HEIGHT 1
VIEWPOINT 0 0 0 1 0 0 0
POINTS 1269
DATA ascii
0.36704 -0.121611 0.0219629 16711680
0.366148 -0.121271 0.0207925 16711680
0.365027 -0.121026 0.0193224 16711680
0.365203 -0.120234 0.0195521 16711680
0.365084 -0.119567 0.0193951 16711680
0.364944 -0.118908 0.0192108 16711680
0.367182 -0.117255 0.022144 16711680
0.366884 -0.116664 0.0217516 16711680
0.365548 -0.116504 0.0199997 16711680
0.365385 -0.115855 0.0197855 16711680
0.365112 -0.115252 0.0194271 16711680
0.365217 -0.114492 0.0195642 16711680
0.365175 -0.113793 0.0195084 16711680
0.366225 -0.112643 0.0208828 16711680
0.366734 -0.111718 0.0215491 16711680
0.366712 -0.111012 0.0215204 16711680
0.366459 -0.110401 0.0211869 16711680
0.366183 -0.109799 0.0208254 16711680
0.366341 -0.10902 0.0210313 16711680
0.366678 -0.108168 0.0214725 16711680
0.366361 -0.107583 0.0210552 16711680
0.3659 -0.107056 0.0204501 16711680
0.365273 -0.106595 0.0196282 16711680
0.364686 -0.106118 0.0188574 16711680
0.364365 -0.105532 0.0184354 16711680
0.364575 -0.104732 0.0187103 16711680
0.363984 -0.104255 0.0179348 16711680
0.363592 -0.103697 0.0174201 16711680
0.36322 -0.103131 0.0169308 16711680
0.363222 -0.102414 0.0169327 16711680
0.368068 -0.161724 0.0221997 16711680
0.367276 -0.161369 0.0211598 16711680
0.367577 -0.160505 0.0215551 16711680
0.36879 -0.159218 0.0231451 16711680
0.368588 -0.158589 0.0228797 16711680
0.368399 -0.157954 0.0226313 16711680
0.367857 -0.157482 0.0219191 16711680
0.3676 -0.156877 0.0215822 16711680
0.367297 -0.156294 0.0211831 16711680
0.366916 -0.155745 0.0206833 16711680
0.366876 -0.15504 0.0206305 16711680
0.366409 -0.154531 0.0200171 16711680
0.366277 -0.153868 0.0198432 16711680
0.366108 -0.153222 0.0196208 16711680
0.366119 -0.152494 0.0196341 16711680
0.365926 -0.151858 0.0193801 16711680
0.366157 -0.15103 0.0196832 16711680
0.365899 -0.150424 0.0193446 16711680
0.366074 -0.149622 0.0195725 16711680
0.365838 -0.149006 0.0192622 16711680
0.365941 -0.148236 0.0193975 16711680
0.365909 -0.147528 0.0193545 16711680
0.365886 -0.146816 0.0193243 16711680
0.36597 -0.146056 0.0194334 16711680
0.365835 -0.145395 0.0192555 16711680
0.365897 -0.144645 0.0193369 16711680
0.365823 -0.143956 0.0192391 16711680
0.366952 -0.142731 0.0207192 16711680
0.36826 -0.141429 0.0224344 16711680
0.368302 -0.140691 0.0224897 16711680
0.368147 -0.14004 0.0222849 16711680
0.367864 -0.139445 0.0219135 16711680
0.367428 -0.138919 0.0213404 16711680
0.367607 -0.13812 0.0215741 16711680
0.367619 -0.137395 0.0215898 16711680
0.36725 -0.136838 0.0211048 16711680
0.366816 -0.136308 0.0205356 16711680
0.366916 -0.135545 0.0206659 16711680
0.366735 -0.134904 0.0204278 16711680
0.366652 -0.134221 0.0203176 16711680
0.366276 -0.133666 0.0198232 16711680
0.366077 -0.133032 0.0195627 16711680
0.365784 -0.13244 0.0191767 16711680
0.365519 -0.131835 0.0188289 16711680
0.366351 -0.130755 0.0199194 16711680
0.367924 -0.129358 0.0219831 16711680
0.366372 -0.129308 0.0199456 16711680
0.36513 -0.129124 0.018315 16711680
0.364947 -0.128482 0.0180751 16711680
0.365768 -0.127411 0.0191516 16711680
0.365668 -0.126735 0.0190194 16711680
0.36569 -0.126007 0.0190479 16711680
0.365322 -0.125445 0.0185639 16711680
0.365151 -0.124799 0.0183392 16711680
0.365947 -0.123743 0.0193826 16711680
0.367724 -0.122272 0.0217131 16711680
0.367488 -0.121655 0.0214028 16711680
0.366323 -0.12143 0.0198739 16711680
0.365478 -0.121069 0.018764 16711680
0.366399 -0.119964 0.0199717 16711680
0.365969 -0.119427 0.0194068 16711680
0.365542 -0.118889 0.0188464 16711680
0.367739 -0.117252 0.0217283 16711680
0.368303 -0.116301 0.0224675 16711680
0.367585 -0.115886 0.0215247 16711680
0.366695 -0.115541 0.0203553 16711680
0.366297 -0.11499 0.0198325 16711680
0.366429 -0.114219 0.0200052 16711680
0.367414 -0.113095 0.0212978 16711680
0.367633 -0.11229 0.0215842 16711680
0.367349 -0.111692 0.0212102 16711680
0.367087 -0.111085 0.0208658 16711680
0.366918 -0.110439 0.0206439 16711680
0.366617 -0.109848 0.0202473 16711680
0.366798 -0.109059 0.020484 16711680
0.367182 -0.108187 0.0209874 16711680
0.367242 -0.107448 0.021066 16711680
0.367278 -0.10672 0.0211118 16711680
0.366646 -0.106262 0.0202814 16711680
0.365664 -0.105946 0.0189928 16711680
0.365603 -0.105255 0.0189123 16711680
0.365499 -0.104582 0.0187753 16711680
0.365102 -0.104028 0.0182525 16711680
0.364335 -0.10362 0.0172466 16711680
0.363815 -0.103114 0.0165629 16711680
0.36402 -0.102316 0.0168308 16711680
0.368231 -0.161182 0.02126 16711680
0.369336 -0.159945 0.0227108 16711680
0.369565 -0.159116 0.023011 16711680
0.369144 -0.158588 0.0224582 16711680
0.368972 -0.157945 0.0222319 16711680
0.368321 -0.157523 0.0213759 16711680
0.368094 -0.156905 0.0210773 16711680
0.367929 -0.156258 0.0208601 16711680
0.367642 -0.155667 0.0204835 16711680
0.367487 -0.155015 0.0202793 16711680
0.367093 -0.154472 0.019761 16711680
0.367088 -0.153751 0.0197543 16711680
0.366857 -0.153133 0.0194503 16711680
0.366946 -0.15237 0.0195664 16711680
0.36675 -0.151736 0.0193088 16711680
0.366929 -0.150931 0.0195429 16711680
0.366852 -0.150243 0.0194422 16711680
0.36688 -0.149508 0.0194774 16711680
0.36686 -0.148795 0.0194509 16711680
0.36678 -0.148109 0.0193449 16711680
0.366842 -0.147358 0.0194265 16711680
0.366656 -0.146719 0.0191816 16711680
0.366798 -0.145934 0.0193676 16711680
0.36657 -0.145314 0.0190673 16711680
0.366879 -0.144454 0.0194722 16711680
0.368779 -0.142884 0.0219676 16711680
0.369237 -0.14196 0.022568 16711680
0.369248 -0.141236 0.0225818 16711680
0.368871 -0.140684 0.0220865 16711680
0.368591 -0.140088 0.021718 16711680
0.368328 -0.139485 0.021372 16711680
0.367833 -0.138984 0.0207224 16711680
0.367998 -0.138191 0.0209382 16711680
0.36831 -0.137334 0.0213475 16711680
0.368264 -0.136635 0.0212867 16711680
0.367924 -0.136065 0.0208397 16711680
0.367475 -0.135543 0.0202487 16711680
0.367319 -0.134891 0.0200441 16711680
0.36738 -0.134145 0.0201228 16711680
0.366928 -0.133623 0.0195286 16711680
0.366739 -0.132985 0.0192796 16711680
0.366287 -0.132462 0.0186867 16711680
0.365871 -0.131922 0.0181397 16711680
0.382702 -0.12251 0.0402405 16711680
0.382416 -0.121927 0.0398644 16711680
0.382358 -0.121245 0.0397875 16711680
0.38217 -0.120619 0.0395412 16711680
0.382031 -0.119972 0.0393575 16711680
0.365719 -0.124793 0.0179331 16711680
0.368192 -0.123024 0.0211804 16711680
0.368272 -0.122274 0.0212851 16711680
0.367745 -0.12178 0.0205922 16711680
0.366516 -0.121582 0.0189781 16711680
0.365493 -0.121296 0.0176342 16711680
0.366024 -0.120354 0.0183297 16711680
0.366994 -0.119229 0.019604 16711680
0.366951 -0.11853 0.0195469 16711680
0.368238 -0.117275 0.0212359 16711680
0.369684 -0.115955 0.0231351 16711680
0.368913 -0.115562 0.0221208 16711680
0.368678 -0.114945 0.0218116 16711680
0.368474 -0.114315 0.021544 16711680
0.368665 -0.113521 0.0217931 16711680
0.368388 -0.112921 0.0214291 16711680
0.368238 -0.112268 0.0212322 16711680
0.367938 -0.111677 0.0208375 16711680
0.367644 -0.111083 0.02045 16711680
0.367523 -0.110418 0.0202903 16711680
0.367203 -0.109834 0.01987 16711680
0.367225 -0.10911 0.0198976 16711680
0.367141 -0.108429 0.0197872 16711680
0.367455 -0.107587 0.0201986 16711680
0.368093 -0.106612 0.0210367 16711680
0.367969 -0.105949 0.020872 16711680
0.367524 -0.105415 0.020288 16711680
0.366699 -0.105036 0.0192028 16711680
0.36619 -0.104526 0.0185342 16711680
0.366073 -0.103859 0.0183794 16711680
0.365277 -0.103464 0.0173334 16711680
0.364549 -0.103042 0.0163765 16711680
0.364349 -0.102406 0.0161133 16711680
0.370344 -0.160456 0.022884 16711680
0.370972 -0.159441 0.0237088 16711680
0.370277 -0.159041 0.0227957 16711680
0.369748 -0.158565 0.0220997 16711680
0.369492 -0.15796 0.021763 16711680
0.36894 -0.157493 0.021036 16711680
0.368737 -0.156864 0.0207694 16711680
0.368616 -0.156196 0.0206103 16711680
0.368348 -0.155597 0.0202571 16711680
0.368241 -0.154923 0.0201163 16711680
0.367919 -0.154348 0.0196921 16711680
0.367898 -0.153634 0.0196644 16711680
0.367769 -0.15297 0.0194938 16711680
0.367783 -0.152241 0.0195122 16711680
0.367761 -0.151528 0.0194836 16711680
0.367751 -0.15081 0.0194694 16711680
0.367787 -0.150071 0.0195171 16711680
0.367644 -0.149413 0.0193286 16711680
0.367723 -0.148655 0.0194318 16711680
0.367564 -0.148005 0.0192225 16711680
0.367655 -0.147242 0.019341 16711680
0.367455 -0.146609 0.0190783 16711680
0.36759 -0.145827 0.0192552 16711680
0.367994 -0.144924 0.0197861 16711680
0.369909 -0.143346 0.022302 16711680
0.370146 -0.14252 0.0226134 16711680
0.369854 -0.141931 0.0222296 16711680
0.369752 -0.141257 0.0220952 16711680
0.369445 -0.140674 0.0216911 16711680
0.369012 -0.140147 0.0211209 16711680
0.368738 -0.139548 0.0207613 16711680
0.368339 -0.139005 0.0202354 16711680
0.368275 -0.138313 0.0201513 16711680
0.368343 -0.137563 0.0202407 16711680
0.369325 -0.136412 0.0215309 16711680
0.369418 -0.135652 0.0216527 16711680
0.368545 -0.135316 0.0205046 16711680
0.367985 -0.134842 0.0197674 16711680
0.368153 -0.134049 0.0199879 16711680
0.367691 -0.133531 0.0193808 16711680
0.383473 -0.124532 0.0401247 16711680
0.383481 -0.123822 0.0401347 16711680
0.383268 -0.123207 0.0398544 16711680
0.383157 -0.122549 0.0397073 16711680
0.382852 -0.121973 0.0393058 16711680
0.382852 -0.121267 0.0393051 16711680
0.382686 -0.120631 0.0390873 16711680
0.382275 -0.1201 0.0385464 16711680
0.381482 -0.119733 0.0375032 16711680
0.381352 -0.119081 0.0373318 16711680
0.36888 -0.12225 0.0209364 16711680
0.364693 -0.121867 0.0154302 16711680
0.368964 -0.119349 0.0210439 16711680
0.368908 -0.118657 0.0209701 16711680
0.367557 -0.118508 0.019194 16711680
0.368924 -0.117219 0.0209904 16711680
0.371279 -0.115519 0.024085 16711680
0.370767 -0.115019 0.0234121 16711680
0.370024 -0.114614 0.0224344 16711680
0.369633 -0.114062 0.0219201 16711680
0.369455 -0.113422 0.0216854 16711680
0.368955 -0.112914 0.0210283 16711680
0.368805 -0.112262 0.0208297 16711680
0.368561 -0.111647 0.0205092 16711680
0.368364 -0.111014 0.0202497 16711680
0.368144 -0.110389 0.0199598 16711680
0.367788 -0.109821 0.0194911 16711680
0.367712 -0.109137 0.0193897 16711680
0.36752 -0.1085 0.0191379 16711680
0.367703 -0.107711 0.0193776 16711680
0.368297 -0.106754 0.0201581 16711680
0.369155 -0.105691 0.0212848 16711680
0.368784 -0.105128 0.0207969 16711680
0.36812 -0.104684 0.0199231 16711680
0.367674 -0.10415 0.0193367 16711680
0.366838 -0.103773 0.0182372 16711680
0.3665 -0.103195 0.0177919 16711680
0.366455 -0.102498 0.017733 16711680
0.365129 -0.102315 0.0159892 16711680
0.371771 -0.159326 0.0236089 16711680
0.370814 -0.159049 0.0223488 16711680
0.370178 -0.158622 0.0215125 16711680
0.369862 -0.158046 0.0210954 16711680
0.369578 -0.157454 0.020722 16711680
0.369529 -0.156754 0.0206566 16711680
0.369291 -0.156141 0.0203438 16711680
0.369076 -0.155517 0.0200607 16711680
0.368894 -0.154877 0.019821 16711680
0.368809 -0.154194 0.0197086 16711680
0.368733 -0.153506 0.0196081 16711680
0.368791 -0.152756 0.0196847 16711680
0.368583 -0.152128 0.0194107 16711680
0.368757 -0.151327 0.0196393 16711680
0.368528 -0.150708 0.0193377 16711680
0.368733 -0.149893 0.0196074 16711680
0.368415 -0.149315 0.0191877 16711680
0.368549 -0.148532 0.0193641 16711680
0.368219 -0.147959 0.0189291 16711680
0.368375 -0.147167 0.0191343 16711680
0.368323 -0.146468 0.0190663 16711680
0.368685 -0.145584 0.0195426 16711680
0.370783 -0.143921 0.0223024 16711680
0.370804 -0.143192 0.0223296 16711680
0.370765 -0.142491 0.0222772 16711680
0.370429 -0.141921 0.0218356 16711680
0.370096 -0.14135 0.0213969 16711680
0.369845 -0.140742 0.0210669 16711680
0.36935 -0.140242 0.0204142 16711680
0.369172 -0.139601 0.0201794 16711680
0.36883 -0.139032 0.0197302 16711680
0.368688 -0.138375 0.0195422 16711680
0.368652 -0.137671 0.0194943 16711680
0.369542 -0.13656 0.0206654 16711680
0.37039 -0.135468 0.0217804 16711680
0.37007 -0.13489 0.0213599 16711680
0.369295 -0.134511 0.0203391 16711680
0.368985 -0.133927 0.0199311 16711680
0.368835 -0.133274 0.0197338 16711680
0.384436 -0.125057 0.0402603 16711680
0.384066 -0.124511 0.039773 16711680
0.383924 -0.123866 0.0395848 16711680
0.383741 -0.123238 0.0393445 16711680
0.383614 -0.122586 0.0391774 16711680
0.383178 -0.122067 0.0386025 16711680
0.383127 -0.121382 0.0385351 16711680
0.383233 -0.12063 0.038674 16711680
0.383308 -0.119891 0.0387729 16711680
0.382583 -0.119495 0.0378182 16711680
0.381676 -0.119175 0.0366251 16711680
0.381171 -0.118683 0.0359592 16711680
0.370672 -0.118147 0.0221421 16711680
0.369139 -0.118076 0.0201253 16711680
0.371659 -0.116304 0.0234405 16711680
0.372397 -0.115281 0.0244107 16711680
0.371742 -0.114842 0.023549 16711680
0.370996 -0.114439 0.0225666 16711680
0.370505 -0.113929 0.0219201 16711680
0.369953 -0.113444 0.0211936 16711680
0.369501 -0.112917 0.0205983 16711680
0.369433 -0.11223 0.0205086 16711680
0.369228 -0.1116 0.0202377 16711680
0.369102 -0.110937 0.0200715 16711680
0.368744 -0.11037 0.0196003 16711680
0.368422 -0.109787 0.019177 16711680
0.368351 -0.109101 0.019082 16711680
0.368059 -0.108506 0.0186976 16711680
0.368167 -0.107747 0.0188389 16711680
0.368351 -0.106957 0.0190817 16711680
0.369066 -0.105952 0.0200216 16711680
0.369738 -0.104965 0.020905 16711680
0.369696 -0.104269 0.0208499 16711680
0.368878 -0.103887 0.0197724 16711680
0.367784 -0.103614 0.0183331 16711680
0.368057 -0.10279 0.0186908 16711680
0.372665 -0.159889 0.023634 16711680
0.372284 -0.159344 0.0231326 16711680
0.37135 -0.159057 0.021901 16711680
0.370625 -0.158672 0.0209466 16711680
0.370446 -0.158032 0.0207112 16711680
0.370224 -0.157411 0.0204189 16711680
0.370294 -0.156656 0.0205098 16711680
0.369899 -0.156116 0.0199901 16711680
0.369816 -0.155431 0.0198798 16711680
0.36961 -0.154803 0.0196093 16711680
0.369603 -0.154084 0.0195996 16711680
0.369412 -0.153448 0.0193481 16711680
0.369567 -0.152655 0.019551 16711680
0.369444 -0.151989 0.0193889 16711680
0.369624 -0.151184 0.019627 16711680
0.369386 -0.15057 0.0193133 16711680
0.369451 -0.149819 0.0193976 16711680
0.369107 -0.149252 0.0189456 16711680
0.369262 -0.14846 0.0191482 16711680
0.369144 -0.147791 0.0189934 16711680
0.369182 -0.147053 0.0190425 16711680
0.369602 -0.146142 0.0195965 16711680
0.371595 -0.144524 0.0222208 16711680
0.371793 -0.143716 0.0224811 16711680
0.371433 -0.143158 0.0220071 16711680
0.371317 -0.142491 0.0218538 16711680
0.370903 -0.141956 0.0213087 16711680
0.370629 -0.141359 0.0209467 16711680
0.370338 -0.140769 0.0205635 16711680
0.369893 -0.140247 0.0199775 16711680
0.36987 -0.139537 0.0199471 16711680
0.369447 -0.139004 0.0193895 16711680
0.369325 -0.138338 0.0192282 16711680
0.369116 -0.13771 0.0189536 16711680
0.369545 -0.136802 0.0195171 16711680
0.370828 -0.135518 0.0212072 16711680
0.371366 -0.134564 0.0219152 16711680
0.370684 -0.134145 0.0210173 16711680
0.369778 -0.133822 0.019824 16711680
0.385875 -0.125374 0.0410224 16711680
0.385197 -0.124962 0.0401297 16711680
0.384653 -0.124492 0.0394131 16711680
0.384548 -0.123831 0.0392746 16711680
0.38423 -0.123262 0.0388551 16711680
0.384074 -0.122622 0.0386497 16711680
0.383684 -0.122084 0.0381353 16711680
0.383455 -0.121475 0.0378333 16711680
0.383726 -0.120652 0.0381901 16711680
0.384153 -0.119762 0.0387527 16711680
0.383617 -0.119285 0.0380462 16711680
0.382694 -0.118973 0.0368303 16711680
0.38157 -0.118745 0.0353497 16711680
0.380017 -0.118698 0.0333039 16711680
0.378873 -0.118475 0.0317969 16711680
0.378941 -0.117737 0.0318862 16711680
0.3734 -0.115805 0.0245875 16711680
0.373436 -0.115077 0.0246336 16711680
0.372727 -0.11466 0.0236996 16711680
0.371776 -0.114343 0.0224471 16711680
0.371154 -0.113888 0.0216285 16711680
0.370579 -0.113413 0.02087 16711680
0.370113 -0.112892 0.0202558 16711680
0.370193 -0.112144 0.0203607 16711680
0.369837 -0.111576 0.0198922 16711680
0.369805 -0.110875 0.0198491 16711680
0.369422 -0.110318 0.0193446 16711680
0.369124 -0.109725 0.0189519 16711680
0.369028 -0.10905 0.0188251 16711680
0.368788 -0.108433 0.0185091 16711680
0.368709 -0.107751 0.0184039 16711680
0.368617 -0.107074 0.0182822 16711680
0.369103 -0.106161 0.0189223 16711680
0.36999 -0.105087 0.0200899 16711680
0.370709 -0.104082 0.021036 16711680
0.370126 -0.103605 0.0202678 16711680
0.36967 -0.103076 0.0196674 16711680
0.369312 -0.102507 0.019196 16711680
0.373341 -0.159831 0.0233723 16711680
0.372792 -0.159365 0.0226488 16711680
0.371876 -0.15907 0.0214417 16711680
0.371355 -0.158589 0.0207546 16711680
0.371388 -0.157852 0.0207975 16711680
0.371011 -0.157304 0.0203006 16711680
0.37092 -0.156623 0.0201812 16711680
0.370516 -0.156087 0.0196484 16711680
0.370592 -0.155329 0.019748 16711680
0.370333 -0.154725 0.0194069 16711680
0.370443 -0.153952 0.0195515 16711680
0.370315 -0.153288 0.0193822 16711680
0.370457 -0.152501 0.0195701 16711680
0.370441 -0.151786 0.0195482 16711680
0.370442 -0.151064 0.0195494 16711680
0.370387 -0.150366 0.0194776 16711680
0.370203 -0.149728 0.0192344 16711680
0.370093 -0.149056 0.0190893 16711680
0.370006 -0.148374 0.0189743 16711680
0.370123 -0.147599 0.0191283 16711680
0.370214 -0.146837 0.019249 16711680
0.372308 -0.145172 0.0220085 16711680
0.372561 -0.144338 0.0223422 16711680
0.372409 -0.143688 0.0221412 16711680
0.372044 -0.143132 0.0216599 16711680
0.371857 -0.142496 0.0214138 16711680
0.371452 -0.141958 0.0208802 16711680
0.371066 -0.14141 0.0203704 16711680
0.370834 -0.140794 0.0200654 16711680
0.370473 -0.140235 0.0195885 16711680
0.370466 -0.139518 0.0195794 16711680
0.370091 -0.138964 0.0190854 16711680
0.370085 -0.138247 0.0190777 16711680
0.369783 -0.13766 0.0186784 16711680
0.370022 -0.136835 0.0189935 16711680
0.37088 -0.135738 0.0201243 16711680
0.372073 -0.134496 0.021697 16711680
0.371962 -0.133827 0.0215509 16711680
0.371153 -0.133463 0.0204842 16711680
0.386644 -0.125275 0.0409049 16711680
0.38589 -0.124897 0.039911 16711680
0.385269 -0.124461 0.0390922 16711680
0.385169 -0.123798 0.0389595 16711680
0.384681 -0.123302 0.0383155 16711680
0.384364 -0.122732 0.0378985 16711680
0.38409 -0.122143 0.037537 16711680
0.384042 -0.121457 0.0374728 16711680
0.384226 -0.120671 0.0377159 16711680
0.385146 -0.11957 0.0389278 16711680
0.384687 -0.11906 0.0383229 16711680
0.383753 -0.118753 0.0370916 16711680
0.382659 -0.118513 0.0356488 16711680
0.381718 -0.118207 0.0344079 16711680
0.381587 -0.117554 0.0342357 16711680
0.379155 -0.116458 0.0310293 16711680
0.37677 -0.114622 0.0278838 16711680
0.37542 -0.114476 0.0261037 16711680
0.373501 -0.114567 0.0235736 16711680
0.37267 -0.1142 0.0224781 16711680
0.371911 -0.113803 0.0214779 16711680
0.371299 -0.113343 0.0206714 16711680
0.370968 -0.112766 0.020234 16711680
0.370876 -0.112089 0.0201126 16711680
0.370477 -0.11154 0.0195863 16711680
0.370378 -0.110866 0.019456 16711680
0.370147 -0.110247 0.0191511 16711680
0.369927 -0.109622 0.0188607 16711680
0.369684 -0.109007 0.0185399 16711680
0.369723 -0.108277 0.0185908 16711680
0.369554 -0.107631 0.0183676 16711680
0.369423 -0.10697 0.0181957 16711680
0.369508 -0.106221 0.0183071 16711680
0.370128 -0.105254 0.0191245 16711680
0.371313 -0.10406 0.0206852 16711680
0.371791 -0.103154 0.0213153 16711680
0.371035 -0.102747 0.0203191 16711680
0.370297 -0.102332 0.0193462 16711680
0.374103 -0.159733 0.0232251 16711680
0.373261 -0.159404 0.0221139 16711680
0.372468 -0.159052 0.0210675 16711680
0.372156 -0.158475 0.0206559 16711680
0.372116 -0.15777 0.0206035 16711680
0.371802 -0.157194 0.0201888 16711680
0.371599 -0.156565 0.0199203 16711680
0.371252 -0.156003 0.0194626 16711680
0.371406 -0.155209 0.019667 16711680
0.3712 -0.154581 0.0193942 16711680
0.37137 -0.153781 0.0196191 16711680
0.371334 -0.153075 0.0195708 16711680
0.371303 -0.152367 0.0195311 16711680
0.371348 -0.151625 0.0195893 16711680
0.371211 -0.150965 0.0194085 16711680
0.371195 -0.150251 0.0193883 16711680
0.370919 -0.149655 0.0190235 16711680
0.37096 -0.148914 0.0190774 16711680
0.370737 -0.148294 0.0187836 16711680
0.370977 -0.147464 0.0190998 16711680
0.373005 -0.145826 0.0217767 16711680
0.373373 -0.144941 0.0222619 16711680
0.373227 -0.144287 0.0220689 16711680
0.373064 -0.143641 0.0218538 16711680
0.372611 -0.143125 0.021256 16711680
0.372414 -0.142494 0.0209965 16711680
0.371974 -0.141971 0.0204159 16711680
0.37157 -0.141432 0.0198832 16711680
0.371441 -0.14077 0.019712 16711680
0.371098 -0.140203 0.0192593 16711680
0.37117 -0.139451 0.0193543 16711680
0.370871 -0.138864 0.0189607 16711680
0.370849 -0.138154 0.0189308 16711680
0.37075 -0.137478 0.0188004 16711680
0.370827 -0.136724 0.0189018 16711680
0.371083 -0.135892 0.0192394 16711680
0.371868 -0.134828 0.020276 16711680
0.372518 -0.133825 0.0211331 16711680
0.387538 -0.125828 0.0409521 16711680
0.387209 -0.125266 0.0405173 16711680
0.386578 -0.124835 0.0396849 16711680
0.386148 -0.124315 0.0391173 16711680
0.385875 -0.123727 0.0387571 16711680
0.38531 -0.123265 0.0380121 16711680
0.384616 -0.122858 0.0370958 16711680
0.384602 -0.122157 0.037078 16711680
0.3851 -0.121236 0.0377346 16711680
0.3856 -0.120314 0.0383935 16711680
0.386166 -0.119365 0.0391413 16711680
0.385844 -0.118797 0.0387164 16711680
0.3849 -0.118496 0.0374696 16711680
0.383586 -0.11835 0.0357362 16711680
0.382315 -0.118184 0.0340594 16711680
0.3823 -0.117483 0.0340397 16711680
0.382442 -0.116715 0.0342264 16711680
0.381991 -0.116198 0.0336312 16711680
0.380628 -0.116067 0.0318326 16711680
0.377438 -0.115282 0.0276231 16711680
0.376261 -0.115066 0.0260696 16711680
0.375946 -0.114486 0.025654 16711680
0.374374 -0.114432 0.0235798 16711680
0.373638 -0.114026 0.0226089 16711680
0.372825 -0.113652 0.0215352 16711680
0.372153 -0.113217 0.0206491 16711680
0.372081 -0.112533 0.0205535 16711680
0.371492 -0.112063 0.0197757 16711680
0.37108 -0.111519 0.0192323 16711680
0.371036 -0.110822 0.019174 16711680
0.370816 -0.110198 0.0188842 16711680
0.370808 -0.109487 0.0188736 16711680
0.370512 -0.108894 0.0184819 16711680
0.37054 -0.108168 0.0185186 16711680
0.370326 -0.107541 0.0182366 16711680
0.370497 -0.106757 0.0184617 16711680
0.37027 -0.106135 0.0181627 16711680
0.370596 -0.105289 0.0185924 16711680
0.371332 -0.104276 0.0195638 16711680
0.372528 -0.103078 0.0211418 16711680
0.372278 -0.102467 0.020811 16711680
0.371395 -0.102111 0.0196463 16711680
0.374575 -0.159771 0.0226948 16711680
0.373837 -0.159394 0.0217195 16711680
0.373161 -0.158987 0.0208271 16711680
0.373011 -0.158334 0.020629 16711680
0.37281 -0.157705 0.0203637 16711680
0.372508 -0.157123 0.0199655 16711680
0.372364 -0.156467 0.0197755 16711680
0.372145 -0.155846 0.0194857 16711680
0.372185 -0.155105 0.0195384 16711680
0.37223 -0.154362 0.0195993 16711680
0.372178 -0.153664 0.0195297 16711680
0.372414 -0.152833 0.0198424 16711680
0.372209 -0.152206 0.0195712 16711680
0.372431 -0.151382 0.0198646 16711680
0.372116 -0.150805 0.019449 16711680
0.372258 -0.150019 0.0196358 16711680
0.371693 -0.149554 0.0188907 16711680
0.371926 -0.148727 0.0191976 16711680
0.371611 -0.148148 0.0187825 16711680
0.373464 -0.146588 0.0212291 16711680
0.374472 -0.145413 0.0225606 16711680
0.374106 -0.144859 0.0220771 16711680
0.37361 -0.144363 0.0214231 16711680
0.373576 -0.143659 0.0213778 16711680
0.373127 -0.143142 0.0207853 16711680
0.372975 -0.14249 0.0205845 16711680
0.372579 -0.141948 0.0200613 16711680
0.372266 -0.141368 0.0196482 16711680
0.372106 -0.14072 0.0194361 16711680
0.37178 -0.140146 0.0190057 16711680
0.371844 -0.139397 0.0190905 16711680
0.371879 -0.138662 0.0191375 16711680
0.371811 -0.137973 0.0190473 16711680
0.371838 -0.137241 0.0190828 16711680
0.371639 -0.13661 0.0188206 16711680
0.371674 -0.135875 0.0188673 16711680
0.371344 -0.135301 0.0184311 16711680
0.388014 -0.125857 0.0404474 16711680
0.387806 -0.125242 0.0401731 16711680
0.387292 -0.12476 0.0394942 16711680
0.387336 -0.124035 0.0395522 16711680
0.386646 -0.123628 0.0386417 16711680
0.38584 -0.123271 0.037577 16711680
0.38504 -0.12291 0.0365202 16711680
0.38524 -0.122117 0.0367843 16711680
0.386963 -0.120668 0.0390595 16711680
0.387215 -0.119853 0.0393928 16711680
0.386948 -0.119263 0.0390404 16711680
0.386458 -0.118767 0.0383931 16711680
0.385692 -0.118389 0.0373818 16711680
0.382823 -0.117492 0.0335925 16711680
0.383644 -0.116436 0.0346768 16711680
0.382841 -0.116069 0.0336159 16711680
0.381443 -0.115953 0.03177 16711680
0.379649 -0.114583 0.0293996 16711680
0.37785 -0.114629 0.0270236 16711680
0.376728 -0.114388 0.0255415 16711680
0.375666 -0.114121 0.024139 16711680
0.374579 -0.113863 0.0227031 16711680
0.373743 -0.113498 0.0216 16711680
0.373028 -0.113082 0.0206544 16711680
0.37287 -0.112434 0.0204467 16711680
0.372323 -0.111947 0.0197233 16711680
0.371745 -0.111472 0.0189608 16711680
0.371698 -0.110777 0.0188982 16711680
0.371473 -0.110155 0.0186017 16711680
0.371582 -0.109396 0.0187442 16711680
0.371273 -0.108808 0.0183362 16711680
0.371364 -0.108057 0.0184566 16711680
0.371162 -0.107425 0.0181893 16711680
0.371442 -0.106596 0.0185603 16711680
0.371189 -0.105986 0.018225 16711680
0.371211 -0.105263 0.0182548 16711680
0.371585 -0.104397 0.0187478 16711680
0.372804 -0.10319 0.0203577 16711680
0.373453 -0.102215 0.0212156 16711680
0.372887 -0.101732 0.0204674 16711680
0.371419 -0.101611 0.0185288 16711680
0.375059 -0.159803 0.0221798 16711680
0.374419 -0.15938 0.0213349 16711680
0.373906 -0.158897 0.0206563 16711680
0.373892 -0.158182 0.0206376 16711680
0.373485 -0.157649 0.0201006 16711680
0.373428 -0.156953 0.0200247 16711680
0.373162 -0.156354 0.0196735 16711680
0.373094 -0.155663 0.0195843 16711680
0.37303 -0.15497 0.0195003 16711680
0.373258 -0.154143 0.019801 16711680
0.373143 -0.153474 0.0196495 16711680
0.373273 -0.152693 0.0198221 16711680
0.373342 -0.15194 0.0199136 16711680
0.373292 -0.151242 0.019847 16711680
0.373165 -0.150578 0.0196794 16711680
0.373001 -0.149932 0.0194627 16711680
0.3727 -0.149348 0.0190648 16711680
0.372705 -0.148624 0.0190718 16711680
0.373736 -0.147435 0.0204347 16711680
0.375052 -0.146119 0.0221758 16711680
0.375059 -0.145397 0.0221841 16711680
0.374622 -0.144875 0.0216078 16711680
0.374278 -0.144311 0.0211525 16711680
0.374126 -0.14366 0.0209521 16711680
0.373634 -0.143162 0.0203022 16711680
0.37354 -0.142485 0.0201778 16711680
0.373194 -0.14192 0.0197204 16711680
0.373042 -0.141269 0.019519 16711680
0.372798 -0.140658 0.0191976 16711680
0.372843 -0.139918 0.0192564 16711680
0.372644 -0.139287 0.0189939 16711680
0.372816 -0.138492 0.0192212 16711680
0.372638 -0.137851 0.0189866 16711680
0.372794 -0.137063 0.0191932 16711680
0.372511 -0.136469 0.018819 16711680
0.372156 -0.135907 0.0183491 16711680
0.388549 -0.127273 0.0400209 16711680
0.388898 -0.126414 0.040483 16711680
0.388719 -0.125786 0.0402468 16711680
0.388599 -0.125133 0.0400884 16711680
0.388298 -0.124559 0.0396901 16711680
0.388188 -0.123901 0.0395446 16711680
0.38747 -0.123507 0.0385953 16711680
0.386584 -0.123185 0.0374243 16711680
0.38652 -0.122506 0.0373397 16711680
0.387953 -0.12118 0.0392343 16711680
0.388286 -0.120331 0.0396754 16711680
0.387828 -0.119823 0.0390692 16711680
0.387258 -0.119363 0.0383162 16711680
0.38706 -0.118742 0.0380542 16711680
0.386392 -0.118323 0.0371717 16711680
0.385142 -0.118151 0.0355185 16711680
0.384001 -0.117931 0.0340104 16711680
0.383615 -0.117388 0.0335002 16711680
0.384298 -0.116389 0.0344039 16711680
0.383293 -0.116109 0.0330752 16711680
0.382663 -0.115668 0.0322418 16711680
0.381625 -0.115398 0.0308707 16711680
0.380759 -0.115055 0.0297259 16711680
0.380197 -0.114582 0.0289826 16711680
0.378847 -0.11444 0.0271974 16711680
0.377984 -0.114091 0.0260575 16711680
0.376755 -0.113895 0.0244327 16711680
0.37553 -0.113695 0.0228125 16711680
0.374775 -0.113298 0.0218143 16711680
0.374521 -0.11269 0.021479 16711680
0.373731 -0.112305 0.0204346 16711680
0.373093 -0.111856 0.0195915 16711680
0.372828 -0.111252 0.0192415 16711680
0.372577 -0.110642 0.0189089 16711680
0.37217 -0.110095 0.0183713 16711680
0.372338 -0.109312 0.018593 16711680
0.372349 -0.108593 0.0186087 16711680
0.372266 -0.107913 0.0184983 16711680
0.372241 -0.107209 0.018465 16711680
0.372209 -0.106508 0.0184234 16711680
0.372215 -0.105792 0.0184318 16711680
0.371976 -0.105176 0.0181149 16711680
0.372211 -0.104367 0.0184265 16711680
0.37279 -0.103419 0.0191914 16711680
0.374314 -0.102089 0.0212057 16711680
0.374068 -0.101477 0.0208808 16711680
0.372425 -0.101428 0.0187087 16711680
0.376157 -0.160269 0.0224771 16711680
0.375427 -0.159889 0.0215114 16711680
0.375096 -0.159322 0.0210742 16711680
0.374755 -0.15876 0.020623 16711680
0.374714 -0.158057 0.0205692 16711680
0.374154 -0.157595 0.0198287 16711680
0.374167 -0.156867 0.0198469 16711680
0.37389 -0.156273 0.0194809 16711680
0.374028 -0.155487 0.0196632 16711680
0.373822 -0.15486 0.0193913 16711680
0.374053 -0.154032 0.0196968 16711680
0.373891 -0.153385 0.0194826 16711680
0.374098 -0.152568 0.0197569 16711680
0.374267 -0.151769 0.0199817 16711680
0.374079 -0.151134 0.019733 16711680
0.374106 -0.150401 0.0197684 16711680
0.373716 -0.149858 0.0192534 16711680
0.373768 -0.149113 0.0193217 16711680
0.373875 -0.148344 0.019464 16711680
0.375932 -0.146689 0.0221863 16711680
0.375759 -0.146049 0.0219575 16711680
0.375676 -0.145367 0.0218477 16711680
0.375221 -0.144854 0.0212463 16711680
0.374968 -0.144249 0.0209115 16711680
0.374808 -0.143602 0.0206999 16711680
0.374281 -0.14312 0.020003 16711680
0.374259 -0.14241 0.0199746 16711680
0.373884 -0.141859 0.0194782 16711680
0.373803 -0.141175 0.019372 16711680
0.37357 -0.14056 0.0190632 16711680
0.373753 -0.139759 0.0193056 16711680
0.373433 -0.139182 0.0188831 16711680
0.373626 -0.138377 0.0191383 16711680
0.373539 -0.137697 0.0190243 16711680
0.373611 -0.136946 0.0191191 16711680
0.385351 -0.129625 0.0346557 16711680
0.388628 -0.127477 0.0389913 16711680
0.389477 -0.126398 0.0401158 16711680
0.389417 -0.125718 0.040036 16711680
0.389359 -0.125038 0.039959 16711680
0.389189 -0.124407 0.0397348 16711680
0.388853 -0.123847 0.039291 16711680
0.388712 -0.123203 0.0391045 16711680
0.388673 -0.122514 0.0390532 16711680
0.388559 -0.121858 0.0389024 16711680
0.388663 -0.121108 0.0390403 16711680
0.388693 -0.12039 0.0390794 16711680
0.388277 -0.119864 0.0385289 16711680
0.387686 -0.119413 0.0377477 16711680
0.387264 -0.118888 0.0371894 16711680
0.386759 -0.118399 0.0365211 16711680
0.385831 -0.118089 0.0352933 16711680
0.385044 -0.117718 0.0342524 16711680
0.385154 -0.116964 0.0343984 16711680
0.384841 -0.11639 0.0339841 16711680
0.384059 -0.116015 0.0329499 16711680
0.383433 -0.115573 0.0321213 16711680
0.382469 -0.115272 0.0308464 16711680
0.381404 -0.115014 0.0294372 16711680
0.380482 -0.114693 0.0282171 16711680
0.379398 -0.114439 0.0267824 16711680
0.378776 -0.113989 0.0259606 16711680
0.377737 -0.113714 0.0245845 16711680
0.376969 -0.113324 0.0235686 16711680
0.376008 -0.113013 0.0222977 16711680
0.375503 -0.11251 0.0216302 16711680
0.374626 -0.112162 0.0204695 16711680
0.374012 -0.111703 0.0196573 16711680
0.373797 -0.111079 0.0193721 16711680
0.373444 -0.110511 0.0189062 16711680
0.373382 -0.109823 0.0188233 16711680
0.37318 -0.109192 0.0185566 16711680
0.373286 -0.108434 0.0186975 16711680
0.373108 -0.107794 0.0184616 16711680
0.373356 -0.106978 0.0187898 16711680
0.373178 -0.106338 0.0185541 16711680
0.373271 -0.105586 0.0186775 16711680
0.373037 -0.104969 0.0183675 16711680
0.373091 -0.104233 0.01844 16711680
0.372974 -0.103568 0.0182849 16711680
0.37436 -0.102293 0.0201193 16711680
0.376603 -0.160318 0.0219134 16711680
0.376047 -0.159858 0.0211771 16711680
0.375807 -0.159248 0.0208598 16711680
0.375519 -0.158661 0.0204794 16711680
0.375395 -0.157997 0.0203153 16711680
0.374998 -0.15746 0.0197899 16711680
0.374866 -0.156799 0.0196153 16711680
0.374627 -0.156188 0.019299 16711680
0.374879 -0.155349 0.0196335 16711680
0.37481 -0.154659 0.0195422 16711680
0.374937 -0.153879 0.019711 16711680
0.375011 -0.153124 0.0198091 16711680
0.374888 -0.152459 0.0196475 16711680
0.375235 -0.151579 0.0201069 16711680
0.374806 -0.151054 0.0195395 16711680
0.374823 -0.150326 0.019562 16711680
0.374512 -0.149747 0.0191501 16711680
0.374704 -0.148939 0.0194058 16711680
0.376369 -0.14746 0.0216115 16711680
0.376853 -0.146521 0.0222523 16711680
0.376401 -0.146008 0.0216539 16711680
0.376225 -0.145368 0.0214218 16711680
0.375847 -0.144821 0.0209211 16711680
0.3756 -0.144213 0.020595 16711680
0.375424 -0.143573 0.0203614 16711680
0.375033 -0.14303 0.0198448 16711680
0.374998 -0.142326 0.0197979 16711680
0.374593 -0.141789 0.0192621 16711680
0.374591 -0.14107 0.0192603 16711680
0.374271 -0.140494 0.0188369 16711680
0.374427 -0.139705 0.0190444 16711680
0.374208 -0.139084 0.0187535 16711680
0.374388 -0.138284 0.0189929 16711680
0.374392 -0.137564 0.0189981 16711680
0.374356 -0.136861 0.0189518 16711680
0.373658 -0.136451 0.0180274 16711680
0.384649 -0.129464 0.032585 16711680
0.389954 -0.126426 0.0396132 16711680
0.390098 -0.125658 0.0398034 16711680
0.389942 -0.12502 0.0395979 16711680
0.389769 -0.124391 0.0393687 16711680
0.389466 -0.123817 0.0389669 16711680
0.389561 -0.12307 0.0390942 16711680
0.389354 -0.122455 0.0388196 16711680
0.389124 -0.121849 0.0385157 16711680
0.389157 -0.121129 0.0385598 16711680
0.389265 -0.120377 0.0387031 16711680
0.388818 -0.119865 0.0381106 16711680
0.388143 -0.11945 0.0372175 16711680
0.387487 -0.119026 0.0363483 16711680
0.38711 -0.118481 0.0358502 16711680
0.38627 -0.118134 0.0347373 16711680
0.385716 -0.117664 0.0340046 16711680
0.385805 -0.116919 0.0341222 16711680
0.385426 -0.116373 0.0336208 16711680
0.384521 -0.116051 0.0324218 16711680
0.38401 -0.115559 0.0317461 16711680
0.383193 -0.115198 0.0306634 16711680
0.382257 -0.114884 0.029424 16711680
0.381767 -0.114382 0.0287755 16711680
0.381641 -0.113726 0.0286087 16711680
0.37998 -0.113714 0.0264089 16711680
0.379173 -0.113342 0.0253402 16711680
0.378368 -0.112968 0.0242743 16711680
0.377354 -0.11268 0.0229322 16711680
0.376404 -0.112364 0.0216737 16711680
0.375612 -0.111981 0.0206251 16711680
0.37518 -0.111447 0.0200531 16711680
0.374672 -0.110944 0.019381 16711680
0.374261 -0.110401 0.0188363 16711680
0.374288 -0.109676 0.0188721 16711680
0.373985 -0.109087 0.0184711 16711680
0.374211 -0.108281 0.0187708 16711680
0.373947 -0.107676 0.0184214 16711680
0.374032 -0.106927 0.0185343 16711680
0.373917 -0.106261 0.018382 16711680
0.374099 -0.105473 0.0186236 16711680
0.373977 -0.10481 0.0184618 16711680
0.373899 -0.104129 0.0183591 16711680
0.3738 -0.103456 0.0182287 16711680
0.374269 -0.102553 0.0188495 16711680
0.377187 -0.160303 0.0215322 16711680
0.376904 -0.159715 0.0211567 16711680
0.376468 -0.159197 0.0205798 16711680
0.376281 -0.158563 0.0203316 16711680
0.376063 -0.157943 0.0200441 16711680
0.375815 -0.157337 0.0197158 16711680
0.375705 -0.156666 0.0195704 16711680
0.375574 -0.156005 0.0193967 16711680
0.375697 -0.155227 0.0195601 16711680
0.375932 -0.154396 0.0198731 16711680
0.375801 -0.153735 0.0197001 16711680
0.37596 -0.152941 0.0199113 16711680
0.37578 -0.152303 0.0196722 16711680
0.375907 -0.151524 0.0198423 16711680
0.37558 -0.150953 0.0194086 16711680
0.375642 -0.150204 0.019491 16711680
0.375267 -0.149655 0.0189946 16711680
0.375789 -0.148696 0.0196878 16711680
0.377618 -0.147143 0.0221128 16711680
0.37751 -0.146473 0.0219703 16711680
0.377042 -0.145967 0.0213495 16711680
0.376855 -0.145333 0.0211024 16711680
0.376459 -0.144793 0.020578 16711680
0.376426 -0.144089 0.020535 16711680
0.376027 -0.14355 0.0200063 16711680
0.375684 -0.142986 0.0195516 16711680
0.375695 -0.142261 0.0195669 16711680
0.375375 -0.141686 0.0191431 16711680
0.375299 -0.141001 0.0190427 16711680
0.375086 -0.140376 0.0187618 16711680
0.375215 -0.1396 0.0189327 16711680
0.375106 -0.13893 0.0187886 16711680
0.375175 -0.13818 0.018881 16711680
0.375355 -0.137381 0.0191205 16711680
0.375025 -0.136809 0.0186833 16711680
0.373808 -0.136629 0.0170698 16711680
0.386593 -0.130267 0.0340208 16711680
0.385286 -0.130134 0.0322876 16711680
0.384887 -0.129599 0.0317597 16711680
0.390164 -0.126573 0.0387558 16711680
0.390651 -0.125653 0.0394022 16711680
0.390478 -0.125024 0.0391728 16711680
0.390185 -0.124446 0.0387849 16711680
0.390002 -0.12382 0.038542 16711680
0.390223 -0.123019 0.0388355 16711680
0.389919 -0.122445 0.0384334 16711680
0.389643 -0.121859 0.0380687 16711680
0.389578 -0.121182 0.0379827 16711680
0.389729 -0.120411 0.0381831 16711680
0.389347 -0.119871 0.0376765 16711680
0.388497 -0.119531 0.0365506 16711680
0.387674 -0.119179 0.0354601 16711680
0.387471 -0.11856 0.0351903 16711680
0.386717 -0.118176 0.0341917 16711680
0.386184 -0.117697 0.0334848 16711680
0.386265 -0.116955 0.0335933 16711680
0.385977 -0.116371 0.0332118 16711680
0.385223 -0.115984 0.0322121 16711680
0.384585 -0.115547 0.0313675 16711680
0.383886 -0.115135 0.0304404 16711680
0.382821 -0.114877 0.0290293 16711680
0.381814 -0.114593 0.0276949 16711680
0.381544 -0.113997 0.0273366 16711680
0.381488 -0.113311 0.0272629 16711680
0.380326 -0.113088 0.0257225 16711680
0.379425 -0.112755 0.0245285 16711680
0.378372 -0.112484 0.0231335 16711680
0.377665 -0.112067 0.0221965 16711680
0.376904 -0.111672 0.0211873 16711680
0.376172 -0.111264 0.0202183 16711680
0.375511 -0.110825 0.0193418 16711680
0.375199 -0.110241 0.0189279 16711680
0.375138 -0.109553 0.0188475 16711680
0.3749 -0.108937 0.0185328 16711680
0.374987 -0.108188 0.0186481 16711680
0.374971 -0.107481 0.0186279 16711680
0.374808 -0.106835 0.0184121 16711680
0.374815 -0.106119 0.0184206 16711680
0.37486 -0.105387 0.0184815 16711680
0.37503 -0.104605 0.0187072 16711680
0.374792 -0.103989 0.0183918 16711680
0.374849 -0.103254 0.018468 16711680
0.374701 -0.102601 0.0182714 16711680
0.375733 -0.101471 0.0196402 16711680
0.378105 -0.160132 0.0215933 16711680
0.37779 -0.159559 0.0211755 16711680
0.377231 -0.159099 0.0204345 16711680
0.376879 -0.158542 0.0199685 16711680
0.376673 -0.157916 0.0196954 16711680
0.3765 -0.157275 0.0194664 16711680
0.376434 -0.156584 0.0193791 16711680
0.376473 -0.155845 0.0194316 16711680
0.376431 -0.155143 0.0193766 16711680
0.376692 -0.154301 0.0197234 16711680
0.376577 -0.153632 0.0195718 16711680
0.376731 -0.15284 0.0197768 16711680
0.376692 -0.152138 0.0197257 16711680
0.376598 -0.15146 0.0196015 16711680
0.376528 -0.150772 0.0195099 16711680
0.376413 -0.150104 0.019357 16711680
0.376356 -0.14941 0.0192827 16711680
0.378273 -0.147814 0.0218273 16711680
0.378629 -0.146933 0.0222999 16711680
0.37811 -0.146451 0.021612 16711680
0.377556 -0.145984 0.0208771 16711680
0.37736 -0.145354 0.0206182 16711680
0.377081 -0.144762 0.0202482 16711680
0.377031 -0.144065 0.0201827 16711680
0.376695 -0.143498 0.0197371 16711680
0.376603 -0.14282 0.0196153 16711680
0.376385 -0.142199 0.0193268 16711680
0.376229 -0.14155 0.0191205 16711680
0.376065 -0.140905 0.0189037 16711680
0.375928 -0.140247 0.0187219 16711680
0.375899 -0.139541 0.0186845 16711680
0.376048 -0.138756 0.0188824 16711680
0.37591 -0.138099 0.0186998 16711680
0.376144 -0.137276 0.0190113 16711680
0.386773 -0.130429 0.0331177 16711680
0.385817 -0.130141 0.0318501 16711680
0.385381 -0.129623 0.0312713 16711680
0.386843 -0.12827 0.033213 16711680
0.390783 -0.125834 0.0384411 16711680
0.390956 -0.125052 0.0386717 16711680
0.390558 -0.12452 0.0381434 16711680
0.390506 -0.123837 0.0380759 16711680
0.390764 -0.123019 0.0384184 16711680
0.390478 -0.122438 0.0380398 16711680
0.390128 -0.121884 0.0375756 16711680
0.389924 -0.121267 0.0373046 16711680
0.38985 -0.120594 0.0372071 16711680
0.38976 -0.119927 0.0370891 16711680
0.388936 -0.119576 0.0359962 16711680
0.388123 -0.11922 0.0349177 16711680
0.388003 -0.118565 0.0347587 16711680
0.387454 -0.118093 0.0340309 16711680
0.387048 -0.11756 0.0334926 16711680
0.387095 -0.116834 0.0335549 16711680
0.386527 -0.116368 0.0328025 16711680
0.385765 -0.115985 0.0317916 16711680
0.385111 -0.115556 0.0309235 16711680
0.384435 -0.115134 0.0300274 16711680
0.383405 -0.114861 0.0286608 16711680
0.382116 -0.114696 0.0269507 16711680
0.380625 -0.114614 0.024973 16711680
0.382671 -0.113043 0.0276881 16711680
0.381101 -0.112993 0.0256051 16711680
0.380148 -0.112682 0.0243418 16711680
0.37941 -0.11228 0.0233625 16711680
0.378381 -0.111998 0.0219977 16711680
0.377561 -0.111628 0.0209095 16711680
0.376895 -0.111192 0.0200257 16711680
0.376216 -0.110761 0.019125 16711680
0.376089 -0.1101 0.0189576 16711680
0.375856 -0.109483 0.0186492 16711680
0.375712 -0.10883 0.0184578 16711680
0.375665 -0.108136 0.0183957 16711680
0.375839 -0.107351 0.018627 16711680
0.375672 -0.106706 0.0184065 16711680
0.375839 -0.105925 0.0186282 16711680
0.375688 -0.105274 0.0184286 16711680
0.375891 -0.104479 0.0186979 16711680
0.375599 -0.103885 0.0183116 16711680
0.375687 -0.103137 0.0184284 16711680
0.375396 -0.102543 0.0180421 16711680
0.375441 -0.101812 0.0181031 16711680
0.380439 -0.160014 0.0235356 16711680
0.379978 -0.159511 0.0229238 16711680
0.37896 -0.159269 0.0215722 16711680
0.378553 -0.158738 0.0210327 16711680
0.378218 -0.158174 0.0205883 16711680
0.377661 -0.157713 0.0198495 16711680
0.377422 -0.157103 0.0195329 16711680
0.377305 -0.156436 0.0193778 16711680
0.377531 -0.15561 0.0196797 16711680
0.377345 -0.154975 0.019433 16711680
0.377484 -0.15419 0.0196177 16711680
0.377424 -0.153496 0.0195394 16711680
0.377462 -0.152758 0.01959 16711680
0.377473 -0.152032 0.0196064 16711680
0.37736 -0.151364 0.0194561 16711680
0.377285 -0.150678 0.0193571 16711680
0.37713 -0.150028 0.019153 16711680
0.378075 -0.148876 0.0204083 16711680
0.3793 -0.147597 0.0220363 16711680
0.379198 -0.146925 0.0219017 16711680
0.378581 -0.146488 0.0210831 16711680
0.378113 -0.145982 0.0204624 16711680
0.378057 -0.145288 0.0203875 16711680
0.377686 -0.144738 0.0198954 16711680
0.377639 -0.14404 0.0198342 16711680
0.377362 -0.143446 0.0194678 16711680
0.377378 -0.14272 0.019489 16711680
0.377189 -0.142086 0.0192389 16711680
0.377188 -0.141368 0.0192386 16711680
0.376864 -0.140794 0.0188085 16711680
0.376907 -0.140056 0.0188656 16711680
0.376692 -0.139434 0.0185812 16711680
0.376856 -0.138642 0.0187994 16711680
0.376707 -0.13799 0.0186025 16711680
0.376948 -0.137165 0.0189232 16711680
0.376423 -0.136679 0.0182263 16711680
0.386457 -0.130099 0.0315566 16711680
0.385977 -0.1296 0.0309198 16711680
0.386239 -0.128775 0.0312684 16711680
0.389071 -0.126823 0.0350304 16711680
0.39121 -0.125178 0.0378721 16711680
0.390238 -0.124897 0.036582 16711680
0.390059 -0.124269 0.0363445 16711680
0.391227 -0.123054 0.0378973 16711680
0.390925 -0.12248 0.0374966 16711680
0.390355 -0.122022 0.0367403 16711680
0.390007 -0.121467 0.036278 16711680
0.389851 -0.120828 0.036072 16711680
0.390062 -0.120031 0.0363525 16711680
0.389368 -0.119625 0.0354311 16711680
0.388537 -0.119276 0.0343279 16711680
0.3885 -0.118585 0.0342796 16711680
0.388018 -0.118085 0.0336406 16711680
0.387613 -0.117552 0.0331024 16711680
0.387697 -0.116809 0.0332143 16711680
0.387085 -0.116363 0.0324024 16711680
0.386365 -0.115962 0.0314468 16711680
0.385693 -0.11554 0.0305554 16711680
0.384989 -0.115131 0.0296205 16711680
0.38401 -0.114836 0.0283209 16711680
0.382826 -0.114628 0.0267482 16711680
0.38159 -0.114439 0.0251069 16711680
0.383501 -0.112924 0.0276462 16711680
0.382314 -0.112714 0.0260704 16711680
0.380863 -0.112612 0.0241438 16711680
0.380174 -0.11219 0.0232285 16711680
0.379446 -0.111783 0.0222621 16711680
0.378423 -0.111497 0.0209042 16711680
0.377653 -0.111106 0.0198812 16711680
0.37708 -0.110631 0.0191214 16711680
0.377023 -0.109942 0.0190456 16711680
0.376601 -0.109403 0.0184854 16711680
0.376631 -0.108677 0.0185268 16711680
0.376444 -0.108042 0.0182786 16711680
0.376576 -0.107274 0.018454 16711680
0.376551 -0.106572 0.0184212 16711680
0.376634 -0.105825 0.018532 16711680
0.376502 -0.105166 0.018358 16711680
0.376688 -0.104378 0.0186045 16711680
0.376608 -0.103698 0.0184995 16711680
0.376591 -0.102993 0.0184777 16711680
0.376246 -0.102421 0.0180198 16711680
0.375897 -0.10185 0.0175569 16711680
0.381475 -0.159786 0.0237575 16711680
0.38095 -0.159313 0.0230603 16711680
0.380836 -0.158647 0.0229104 16711680
0.380441 -0.158112 0.0223855 16711680
0.380467 -0.15738 0.0224217 16711680
0.380148 -0.156809 0.0219975 16711680
0.379746 -0.156277 0.0214638 16711680
0.379684 -0.155586 0.0213822 16711680
0.379504 -0.154949 0.0211442 16711680
0.379399 -0.154278 0.021006 16711680
0.379241 -0.153631 0.0207965 16711680
0.379143 -0.152957 0.0206666 16711680
0.379045 -0.152282 0.0205375 16711680
0.378912 -0.151624 0.0203613 16711680
0.378796 -0.150957 0.0202074 16711680
0.378502 -0.150373 0.0198174 16711680
0.378668 -0.149577 0.020039 16711680
0.380247 -0.148134 0.0221395 16711680
0.380154 -0.147459 0.0220165 16711680
0.379732 -0.146933 0.0214564 16711680
0.379183 -0.146465 0.0207279 16711680
0.378812 -0.145915 0.0202353 16711680
0.378669 -0.145261 0.0200454 16711680
0.378381 -0.144673 0.0196636 16711680
0.378387 -0.143951 0.0196724 16711680
0.378105 -0.14336 0.0192987 16711680
0.37816 -0.142616 0.0193716 16711680
0.378015 -0.141963 0.0191808 16711680
0.377988 -0.141256 0.019145 16711680
0.377743 -0.140648 0.0188205 16711680
0.377794 -0.139906 0.0188892 16711680
0.377559 -0.139293 0.0185769 16711680
0.377681 -0.13852 0.0187404 16711680
0.377697 -0.137795 0.0187626 16711680
0.377676 -0.137086 0.0187351 16711680
0.37711 -0.136619 0.0179837 16711680
0.387167 -0.130027 0.0313568 16711680
0.386718 -0.129514 0.0307611 16711680
0.386606 -0.128854 0.0306129 16711680
0.387881 -0.127584 0.032308 16711680
0.390162 -0.125876 0.0353414 16711680
0.389826 -0.125315 0.0348954 16711680
0.388953 -0.124989 0.0337355 16711680
0.39093 -0.12342 0.0363646 16711680
0.39118 -0.122605 0.0366987 16711680
0.390553 -0.122171 0.0358658 16711680
0.390217 -0.121611 0.0354195 16711680
0.390115 -0.120949 0.0352845 16711680
0.390343 -0.120144 0.0355881 16711680
0.389846 -0.119653 0.034928 16711680
0.389067 -0.119282 0.0338931 16711680
0.388983 -0.118611 0.0337826 16711680
0.388767 -0.117997 0.0334957 16711680
0.38853 -0.117392 0.0331813 16711680
0.388134 -0.116855 0.032655 16711680
0.387546 -0.116399 0.0318736 16711680
0.386756 -0.116028 0.0308247 16711680
0.386211 -0.115552 0.0301012 16711680
0.385484 -0.115153 0.0291343 16711680
0.384621 -0.114809 0.027988 16711680
0.384384 -0.1142 0.027674 16711680
0.383644 -0.113804 0.0266904 16711680
0.384489 -0.112739 0.027814 16711680
0.382919 -0.112689 0.0257285 16711680
0.38201 -0.112361 0.02452 16711680
0.381385 -0.111913 0.0236895 16711680
0.380419 -0.111606 0.0224059 16711680
0.3792 -0.111403 0.0207856 16711680
0.378364 -0.111038 0.0196759 16711680
0.377999 -0.110477 0.0191913 16711680
0.377941 -0.109789 0.0191143 16711680
0.377428 -0.109289 0.0184323 16711680
0.377491 -0.108549 0.0185176 16711680
0.377242 -0.107939 0.0181873 16711680
0.377535 -0.107106 0.0185771 16711680
0.377549 -0.106388 0.0185958 16711680
0.37753 -0.105683 0.018572 16711680
0.37762 -0.104934 0.0186913 16711680
0.377569 -0.104243 0.018625 16711680
0.37769 -0.103482 0.0187861 16711680
0.377577 -0.102816 0.0186361 16711680
0.377413 -0.102171 0.0184184 16711680
0.376573 -0.101799 0.0173035 16711680
0.38245 -0.160305 0.0238985 16711680
0.38208 -0.15976 0.0234081 16711680
0.381626 -0.159254 0.0228041 16711680
0.381488 -0.158599 0.0226222 16711680
0.381148 -0.158039 0.0221709 16711680
0.381189 -0.1573 0.0222254 16711680
0.381052 -0.156645 0.0220438 16711680
0.38121 -0.155851 0.0222558 16711680
0.381135 -0.155166 0.022157 16711680
0.381268 -0.154385 0.0223348 16711680
0.38149 -0.153563 0.0226305 16711680
0.381404 -0.152884 0.0225176 16711680
0.381492 -0.152125 0.0226355 16711680
0.381343 -0.151475 0.0224384 16711680
0.381325 -0.150765 0.0224152 16711680
0.381092 -0.150154 0.0221066 16711680
0.380952 -0.1495 0.0219207 16711680
0.380989 -0.148765 0.0219713 16711680
0.381532 -0.147798 0.0226946 16711680
0.381112 -0.147272 0.0221373 16711680
0.38042 -0.146871 0.021216 16711680
0.380091 -0.146302 0.0207793 16711680
0.380089 -0.145585 0.0207777 16711680
0.379527 -0.145122 0.0200311 16711680
0.379311 -0.144501 0.0197448 16711680
0.379181 -0.143841 0.0195724 16711680
0.378978 -0.143214 0.0193037 16711680
0.378965 -0.142502 0.019286 16711680
0.378842 -0.141839 0.0191238 16711680
