# .PCD v0.7 - Point Cloud Data file format
VERSION 0.7
FIELDS x y z rgb
SIZE 4 4 4 4
TYPE F F F F
COUNT 1 1 1 1
WIDTH 294
HEIGHT 1
VIEWPOINT 0 0 0 1 0 0 0
POINTS 294
DATA ascii
0.416225 0.157818 0.00684464 16711680
0.417963 0.157306 0.00813127 16711680
0.417563 0.15792 0.00757372 16711680
0.416963 0.158509 0.00673628 16711680
0.418808 0.157345 0.00817263 16711680
0.418667 0.157992 0.00797832 16711680
0.418108 0.158586 0.00719666 16711680
0.417236 0.159141 0.0059768 16711680
0.419394 0.158016 0.00785398 16711680
0.419014 0.158632 0.00732303 16711680
0.41853 0.159236 0.00664675 16711680
0.42005 0.15803 0.00762999 16711680
0.420011 0.15869 0.00757837 16711680
0.419714 0.159317 0.00716579 16711680
0.419063 0.1599 0.00625384 16711680
0.420988 0.158746 0.00780761 16711680
0.420663 0.159369 0.00735414 16711680
0.420033 0.159954 0.00647116 16711680
0.421416 0.158732 0.00726342 16711680
0.421454 0.159401 0.00732183 16711680
0.42111 0.160022 0.00684071 16711680
0.421564 0.158681 0.00632381 16711680
0.422202 0.159427 0.00722837 16711680
0.422246 0.160097 0.0072943 16711680
0.421708 0.160694 0.00653994 16711680
0.421747 0.158636 0.00543356 16711680
0.422623 0.159412 0.00667393 16711680
0.423187 0.160148 0.00747526 16711680
0.422601 0.160738 0.00665164 16711680
0.422116 0.161341 0.00597131 16711680
0.422478 0.157995 0.00531209 16711680
0.422273 0.158634 0.00502574 16711680
0.422969 0.159387 0.00601447 16711680
0.423888 0.160168 0.00731778 16711680
0.423775 0.160817 0.00716221 16711680
0.423406 0.161435 0.00664473 16711680
0.425788 0.155699 0.00882578 16711680
0.423967 0.157453 0.00626302 16711680
0.42296 0.158653 0.00484788 16711680
0.423359 0.159368 0.00541663 16711680
0.424325 0.160155 0.00678682 16711680
0.424909 0.160892 0.00761735 16711680
0.424374 0.161488 0.00686479 16711680
0.426386 0.15637 0.00852883 16711680
0.424281 0.158088 0.00556195 16711680
0.423995 0.158716 0.00516081 16711680
0.423894 0.159368 0.00502324 16711680
0.424675 0.160131 0.00613272 16711680
0.425717 0.160926 0.00761378 16711680
0.425368 0.161545 0.00712323 16711680
0.426931 0.156371 0.00815189 16711680
0.426677 0.157001 0.00779676 16711680
0.425975 0.157573 0.00680578 16711680
0.425296 0.158149 0.00584841 16711680
0.424997 0.158775 0.00542951 16711680
0.424551 0.159382 0.00480199 16711680
0.425055 0.160111 0.00552142 16711680
0.426339 0.160936 0.0073458 16711680
0.4264 0.161607 0.00743604 16711680
0.427431 0.156366 0.00771236 16711680
0.427328 0.157016 0.00757062 16711680
0.427054 0.157643 0.00718617 16711680
0.42642 0.158225 0.00629151 16711680
0.425803 0.158809 0.00542152 16711680
0.425238 0.159401 0.00462508 16711680
0.425466 0.160094 0.00495255 16711680
0.426476 0.160886 0.00638986 16711680
0.427378 0.161662 0.00767434 16711680
0.428059 0.156378 0.00745392 16711680
0.427816 0.157009 0.00711358 16711680
0.427778 0.157667 0.0070641 16711680
0.427357 0.158276 0.00647116 16711680
0.42656 0.158837 0.00534415 16711680
0.426135 0.159447 0.00474548 16711680
0.426159 0.160114 0.00478446 16711680
0.426628 0.160837 0.00545514 16711680
0.428043 0.161677 0.00746942 16711680
0.42878 0.156402 0.00732732 16711680
0.428403 0.157015 0.00679624 16711680
0.428409 0.157679 0.00680947 16711680
0.428145 0.158308 0.00643945 16711680
0.42741 0.158877 0.00540018 16711680
0.427105 0.159502 0.00497103 16711680
0.426881 0.160137 0.00465727 16711680
0.426911 0.160804 0.00470507 16711680
0.428436 0.161659 0.00687706 16711680
0.429583 0.156437 0.00731897 16711680
0.429002 0.157023 0.00649667 16711680
0.428978 0.157683 0.00646734 16711680
0.428825 0.158326 0.00625515 16711680
0.428643 0.158966 0.00600123 16711680
0.428209 0.159574 0.0053885 16711680
0.427562 0.160155 0.00447392 16711680
0.427444 0.160804 0.00430989 16711680
0.428411 0.161589 0.00569177 16711680
0.430437 0.156478 0.00738323 16711680
0.429745 0.15705 0.00640309 16711680
0.429512 0.157683 0.00607562 16711680
0.429409 0.158332 0.00593448 16711680
0.429384 0.158992 0.00590336 16711680
0.429049 0.159612 0.00543177 16711680
0.428396 0.160192 0.00450671 16711680
0.428114 0.16082 0.00411046 16711680
0.428583 0.161542 0.00478339 16711680
0.430539 0.155095 0.00636697 16711680
0.430568 0.155762 0.0064131 16711680
0.431171 0.156504 0.00727713 16711680
0.430889 0.157129 0.00688076 16711680
0.430079 0.157686 0.00573194 16711680
0.430025 0.158342 0.00566006 16711680
0.430236 0.159032 0.00596571 16711680
0.429792 0.159638 0.00533831 16711680
0.429388 0.16025 0.00476682 16711680
0.429266 0.160897 0.00459874 16711680
0.429137 0.161544 0.0044198 16711680
0.43289 0.154014 0.00855732 16711680
0.431832 0.154533 0.00705314 16711680
0.431061 0.155093 0.00595784 16711680
0.430906 0.155735 0.00574207 16711680
0.431618 0.156492 0.00676286 16711680
0.431673 0.157162 0.00684714 16711680
0.430826 0.157714 0.00564396 16711680
0.430383 0.158319 0.0050168 16711680
0.430979 0.159059 0.00587261 16711680
0.43068 0.159683 0.00545156 16711680
0.430451 0.160316 0.00512886 16711680
0.430016 0.160924 0.00451458 16711680
0.429754 0.161554 0.00414503 16711680
0.429832 0.162227 0.00426161 16711680
0.428359 0.162707 0.00216615 16711680
0.433365 0.154005 0.0080837 16711680
0.432367 0.154533 0.00666308 16711680
0.431628 0.155097 0.00561333 16711680
0.431371 0.155726 0.00525177 16711680
0.432056 0.156479 0.00623584 16711680
0.432459 0.157194 0.00681651 16711680
0.431811 0.157772 0.00589657 16711680
0.430957 0.158324 0.00468218 16711680
0.431795 0.159094 0.00588381 16711680
0.43181 0.159759 0.00591016 16711680
0.43152 0.160384 0.00550175 16711680
0.430884 0.160966 0.00459909 16711680
0.430394 0.161567 0.00390482 16711680
0.430232 0.16221 0.00367928 16711680
0.428829 0.162699 0.00168109 16711680
0.433882 0.154003 0.00766957 16711680
0.432871 0.154529 0.00622988 16711680
0.432214 0.155104 0.00529635 16711680
0.431909 0.155726 0.00486672 16711680
0.432447 0.15646 0.00564039 16711680
0.433443 0.157253 0.00706971 16711680
0.43267 0.157814 0.00596988 16711680
0.431676 0.158347 0.00455415 16711680
0.432437 0.159108 0.00564766 16711680
0.432567 0.159787 0.00583875 16711680
0.432346 0.16042 0.00552821 16711680
0.431819 0.161016 0.00478005 16711680
0.431284 0.161611 0.00402153 16711680
0.430831 0.162217 0.00337911 16711680
0.429356 0.162697 0.00127625 16711680
0.433431 0.154532 0.00587726 16711680
0.432861 0.155118 0.00506723 16711680
0.432517 0.155735 0.00457978 16711680
0.432946 0.156455 0.00520003 16711680
0.434505 0.157322 0.00743496 16711680
0.432908 0.159099 0.00516665 16711680
0.433632 0.159854 0.00620878 16711680
0.433102 0.160448 0.00545597 16711680
0.432731 0.161063 0.00493073 16711680
0.432369 0.16168 0.00441802 16711680
0.431517 0.162235 0.00320494 16711680
0.433308 0.155769 0.00455737 16711680
0.433488 0.156455 0.00481987 16711680
0.435378 0.157366 0.00753236 16711680
0.433664 0.159127 0.00509477 16711680
0.434472 0.159893 0.00625682 16711680
0.434073 0.160504 0.00569189 16711680
0.433772 0.161127 0.00526571 16711680
0.433214 0.161718 0.00447309 16711680
0.434194 0.155153 0.00466442 16711680
0.433997 0.155789 0.00438833 16711680
0.43402 0.156455 0.00442719 16711680
0.436066 0.157386 0.00736523 16711680
0.435829 0.158016 0.00703096 16711680
0.434177 0.158462 0.00466895 16711680
0.434213 0.159129 0.00472629 16711680
0.435189 0.159916 0.0061307 16711680
0.435208 0.16058 0.00616384 16711680
0.434654 0.161171 0.00537503 16711680
0.433981 0.161747 0.00441575 16711680
0.434883 0.155173 0.00449634 16711680
0.434721 0.155814 0.00426948 16711680
0.434581 0.156458 0.00407434 16711680
0.436803 0.157412 0.00726843 16711680
0.436676 0.158056 0.0070914 16711680
0.435293 0.158537 0.00511348 16711680
0.434841 0.159141 0.00447071 16711680
0.436212 0.159979 0.00644386 16711680
0.436177 0.160635 0.00639844 16711680
0.435525 0.161213 0.00546932 16711680
0.434798 0.161782 0.00443172 16711680
0.433992 0.162343 0.003281 16711680
0.435616 0.155199 0.00439215 16711680
0.435419 0.155835 0.00411558 16711680
0.435185 0.156467 0.00378525 16711680
0.437415 0.157422 0.00699341 16711680
0.43745 0.158088 0.00704956 16711680
0.436203 0.158586 0.00526428 16711680
0.435332 0.159135 0.00401926 16711680
0.436986 0.160009 0.00640023 16711680
0.43693 0.160663 0.00632584 16711680
0.436278 0.16124 0.00539398 16711680
0.435653 0.161822 0.00450277 16711680
0.434734 0.162369 0.0031898 16711680
0.436405 0.155233 0.00436902 16711680
0.436166 0.155863 0.00403023 16711680
0.435832 0.156481 0.00355709 16711680
0.438074 0.157439 0.00678563 16711680
0.438202 0.158116 0.00697517 16711680
0.436896 0.158606 0.00510335 16711680
0.436119 0.159167 0.00399303 16711680
0.437782 0.160042 0.00638878 16711680
0.437602 0.16068 0.00613534 16711680
0.437032 0.161268 0.00532198 16711680
0.4365 0.161862 0.00456321 16711680
0.435626 0.162413 0.00331271 16711680
0.437305 0.15462 0.00449967 16711680
0.437219 0.15527 0.00438201 16711680
0.436873 0.155886 0.00388956 16711680
0.436633 0.156516 0.00355077 16711680
0.438773 0.15746 0.00663602 16711680
0.439207 0.158177 0.0072664 16711680
0.438107 0.158694 0.00568914 16711680
0.437071 0.159221 0.00420403 16711680
0.438552 0.160073 0.00634122 16711680
0.438319 0.160703 0.00601149 16711680
0.437835 0.161302 0.00532162 16711680
0.437238 0.161887 0.00446773 16711680
0.436216 0.16242 0.00300407 16711680
0.437948 0.155296 0.00427377 16711680
0.437536 0.155903 0.00368619 16711680
0.437503 0.15656 0.00364375 16711680
0.439413 0.157474 0.00640082 16711680
0.440088 0.158222 0.00737846 16711680
0.439033 0.158745 0.00586617 16711680
0.437572 0.159216 0.00376821 16711680
0.43915 0.160081 0.00604701 16711680
0.438966 0.160717 0.00578666 16711680
0.438686 0.161342 0.00538957 16711680
0.438204 0.161941 0.00470161 16711680
0.437379 0.162498 0.00352049 16711680
0.438538 0.155303 0.00396419 16711680
0.438182 0.155918 0.00345826 16711680
0.438231 0.156586 0.00353467 16711680
0.4401 0.157494 0.00623512 16711680
0.440781 0.158243 0.00722265 16711680
0.439682 0.15876 0.0056448 16711680
0.438307 0.159242 0.00366807 16711680
0.439766 0.160091 0.00577736 16711680
0.439575 0.160727 0.00550818 16711680
0.439528 0.161381 0.00544643 16711680
0.439034 0.161978 0.00474048 16711680
0.438062 0.162517 0.00334525 16711680
0.439335 0.154677 0.00394857 16711680
0.439186 0.155318 0.0037396 16711680
0.438874 0.155938 0.00329638 16711680
0.439076 0.156627 0.00359392 16711680
0.440862 0.157524 0.00617659 16711680
0.441398 0.158254 0.0069561 16711680
0.440318 0.158773 0.00540459 16711680
0.439354 0.159308 0.00402009 16711680
0.440296 0.16009 0.00538552 16711680
0.440207 0.160739 0.00526261 16711680
0.440143 0.161391 0.00517595 16711680
0.439707 0.161996 0.00455356 16711680
0.438607 0.162518 0.0029726 16711680
0.440077 0.154705 0.00386095 16711680
0.439779 0.155326 0.00343692 16711680
0.439548 0.155957 0.00311005 16711680
0.439656 0.156633 0.00327182 16711680
0.44201 0.157605 0.00667727 16711680
0.441897 0.158249 0.00652027 16711680
0.440789 0.158764 0.0049262 16711680
0.440377 0.159371 0.00433767 16711680
0.440763 0.160081 0.00490117 16711680
0.440705 0.160734 0.00482368 16711680
0.440676 0.16139 0.00478888 16711680
0.440306 0.162004 0.00425982 16711680
0.439255 0.162532 0.00274825 16711680
0.440845 0.154736 0.00381076 16711680
0.440583 0.155362 0.00343871 16711680
0.440558 0.15602 0.00340891 16711680
0.440536 0.156678 0.00338316 16711680
0.441029 0.162027 0.00414586 16711680
