# .PCD v0.7 - Point Cloud Data file format
VERSION 0.7
FIELDS x y z rgb
SIZE 4 4 4 4
TYPE F F F F
COUNT 1 1 1 1
WIDTH 1175
HEIGHT 1
VIEWPOINT 0 0 0 1 0 0 0
POINTS 1175
DATA ascii
0.247094 0.106794 0.0213109 16711680
0.247171 0.107518 0.0213886 16711680
0.247187 0.108233 0.0213962 16711680
0.2467 0.10887 0.0208185 16711680
0.246826 0.109602 0.0209531 16711680
0.247154 0.110364 0.021322 16711680
0.247026 0.111056 0.0211613 16711680
0.246721 0.111722 0.0207961 16711680
0.246591 0.112414 0.0206329 16711680
0.246138 0.113058 0.0200951 16711680
0.246093 0.113764 0.020031 16711680
0.245907 0.114448 0.0198032 16711680
0.245617 0.115118 0.0194546 16711680
0.245586 0.115825 0.0194073 16711680
0.245348 0.116503 0.0191195 16711680
0.245435 0.117228 0.019208 16711680
0.245225 0.117909 0.0189523 16711680
0.245431 0.118651 0.0191804 16711680
0.245189 0.119328 0.0188876 16711680
0.245387 0.120069 0.0191057 16711680
0.245093 0.120739 0.0187531 16711680
0.245317 0.121482 0.0190005 16711680
0.248315 0.103333 0.0216997 16711680
0.247977 0.103992 0.0212953 16711680
0.24794 0.104698 0.0212402 16711680
0.247734 0.105378 0.0209892 16711680
0.247508 0.106055 0.020714 16711680
0.247473 0.106762 0.0206623 16711680
0.247436 0.107469 0.0206072 16711680
0.247734 0.108227 0.0209419 16711680
0.247479 0.1089 0.0206341 16711680
0.247305 0.109586 0.0204195 16711680
0.247759 0.110367 0.0209358 16711680
0.24766 0.111064 0.0208095 16711680
0.247262 0.111716 0.0203353 16711680
0.2471 0.112403 0.0201349 16711680
0.246673 0.113051 0.0196265 16711680
0.246473 0.113733 0.0193832 16711680
0.246334 0.114425 0.0192093 16711680
0.246081 0.1151 0.0189034 16711680
0.246029 0.115805 0.0188321 16711680
0.245817 0.116486 0.0185736 16711680
0.245799 0.117195 0.018541 16711680
0.245658 0.117887 0.0183649 16711680
0.245699 0.118605 0.0184014 16711680
0.245524 0.119292 0.0181865 16711680
0.245617 0.120018 0.0182829 16711680
0.245425 0.120703 0.0180472 16711680
0.245471 0.121421 0.0180892 16711680
0.245426 0.122127 0.0180253 16711680
0.245398 0.122835 0.0179812 16711680
0.245417 0.123549 0.0179923 16711680
0.245377 0.124256 0.0179337 16711680
0.245479 0.124982 0.0180411 16711680
0.245485 0.125694 0.018036 16711680
0.249596 0.0998848 0.0221581 16711680
0.249401 0.100565 0.0219197 16711680
0.249158 0.101238 0.0216253 16711680
0.249107 0.101943 0.0215547 16711680
0.248808 0.102607 0.0211952 16711680
0.248719 0.103305 0.0210793 16711680
0.248545 0.10399 0.020866 16711680
0.248467 0.10469 0.0207629 16711680
0.248271 0.105371 0.0205234 16711680
0.248048 0.106049 0.020252 16711680
0.248043 0.10676 0.0202346 16711680
0.247913 0.107453 0.020072 16711680
0.248291 0.108224 0.0204999 16711680
0.248375 0.108949 0.0205865 16711680
0.247947 0.109595 0.0200765 16711680
0.248409 0.110378 0.0206023 16711680
0.248433 0.111093 0.0206182 16711680
0.247909 0.111725 0.0199972 16711680
0.247766 0.112416 0.0198189 16711680
0.247233 0.113048 0.0191883 16711680
0.246978 0.113722 0.0188797 16711680
0.246875 0.114419 0.018748 16711680
0.246634 0.115095 0.0184562 16711680
0.246632 0.115807 0.0184425 16711680
0.246397 0.116485 0.0181571 16711680
0.246374 0.117194 0.018118 16711680
0.246205 0.117882 0.017911 16711680
0.246145 0.118585 0.0178287 16711680
0.246039 0.119282 0.0176936 16711680
0.245969 0.119985 0.0176009 16711680
0.245897 0.120687 0.017506 16711680
0.245833 0.12139 0.0174196 16711680
0.245832 0.122102 0.0174074 16711680
0.245717 0.122797 0.017261 16711680
0.245779 0.123518 0.0173221 16711680
0.245706 0.12422 0.0172259 16711680
0.245818 0.124947 0.0173444 16711680
0.245763 0.125651 0.0172691 16711680
0.245905 0.126383 0.0174229 16711680
0.245813 0.127081 0.0173037 16711680
0.245944 0.127811 0.0174452 16711680
0.245926 0.12852 0.017413 16711680
0.25066 0.0985396 0.0223299 16711680
0.250267 0.0991873 0.0218606 16711680
0.250081 0.0998693 0.021633 16711680
0.249921 0.100556 0.0214354 16711680
0.249613 0.101218 0.0210645 16711680
0.249652 0.101937 0.0210987 16711680
0.249362 0.102603 0.0207498 16711680
0.249347 0.103312 0.0207201 16711680
0.249121 0.103989 0.0204457 16711680
0.249057 0.104691 0.0203587 16711680
0.248838 0.105369 0.0200932 16711680
0.24866 0.106054 0.0198739 16711680
0.24861 0.106758 0.0198039 16711680
0.248465 0.107448 0.0196239 16711680
0.24897 0.108239 0.0202004 16711680
0.249321 0.109005 0.0205966 16711680
0.248691 0.10962 0.0198524 16711680
0.24865 0.110325 0.019793 16711680
0.249083 0.111103 0.0202858 16711680
0.248775 0.111768 0.0199155 16711680
0.248446 0.11243 0.0195204 16711680
0.247896 0.11306 0.0188686 16711680
0.247684 0.11374 0.0186096 16711680
0.24745 0.114417 0.0183264 16711680
0.24725 0.1151 0.0180812 16711680
0.247239 0.115811 0.0180578 16711680
0.246981 0.116485 0.0177448 16711680
0.246956 0.117194 0.0177046 16711680
0.24677 0.117879 0.0174768 16711680
0.246724 0.118585 0.0174118 16711680
0.246594 0.119278 0.0172484 16711680
0.246494 0.119976 0.0171208 16711680
0.24644 0.12068 0.0170462 16711680
0.246326 0.121376 0.0169017 16711680
0.246343 0.122091 0.0169106 16711680
0.246228 0.122787 0.0167651 16711680
0.246274 0.123505 0.0168064 16711680
0.246149 0.1242 0.0166494 16711680
0.246248 0.124926 0.0167534 16711680
0.246118 0.125619 0.0165911 16711680
0.246268 0.126352 0.0167536 16711680
0.246174 0.127051 0.0166333 16711680
0.246342 0.127785 0.016817 16711680
0.246168 0.128473 0.0166036 16711680
0.246468 0.129225 0.0169411 16711680
0.246341 0.129919 0.0167812 16711680
0.246508 0.130652 0.0169644 16711680
0.246517 0.131364 0.0169641 16711680
0.252032 0.0958231 0.0228851 16711680
0.251882 0.09651 0.022699 16711680
0.251676 0.0971876 0.0224465 16711680
0.251254 0.0978299 0.0219442 16711680
0.251144 0.0985239 0.0218045 16711680
0.250824 0.0991836 0.0214198 16711680
0.250617 0.0998619 0.0211663 16711680
0.250516 0.100558 0.021037 16711680
0.250292 0.101234 0.0207646 16711680
0.250209 0.101933 0.0206566 16711680
0.249936 0.102601 0.0203271 16711680
0.249975 0.10332 0.0203611 16711680
0.249739 0.103995 0.020074 16711680
0.249742 0.104708 0.0200657 16711680
0.249437 0.105372 0.0196992 16711680
0.24938 0.106075 0.0196215 16711680
0.249221 0.106763 0.019425 16711680
0.249091 0.107455 0.0192616 16711680
0.249669 0.108257 0.0199237 16711680
0.250269 0.109061 0.0206113 16711680
0.249611 0.109671 0.0198325 16711680
0.249219 0.110323 0.0193641 16711680
0.249812 0.111126 0.0200444 16711680
0.249621 0.111808 0.0198098 16711680
0.249207 0.112457 0.0193164 16711680
0.248616 0.11308 0.0186162 16711680
0.24843 0.113764 0.0183884 16711680
0.248108 0.114428 0.018001 16711680
0.247892 0.115109 0.017738 16711680
0.247889 0.11582 0.0177226 16711680
0.247569 0.116485 0.0173379 16711680
0.247651 0.11721 0.0174227 16711680
0.247392 0.117884 0.0171089 16711680
0.247392 0.118596 0.0170974 16711680
0.247181 0.119278 0.01684 16711680
0.247103 0.119979 0.0167379 16711680
0.247015 0.120679 0.0166242 16711680
0.246925 0.121378 0.0165073 16711680
0.246917 0.122089 0.0164863 16711680
0.246774 0.122781 0.0163089 16711680
0.24684 0.123503 0.0163746 16711680
0.246695 0.124194 0.0161934 16711680
0.246771 0.124917 0.0162705 16711680
0.246632 0.125609 0.0160973 16711680
0.24674 0.126336 0.0162113 16711680
0.246628 0.127032 0.0160697 16711680
0.24675 0.127761 0.0162008 16711680
0.246632 0.128456 0.0160524 16711680
0.246825 0.129194 0.016265 16711680
0.246698 0.129888 0.0161059 16711680
0.2469 0.130626 0.0163299 16711680
0.246799 0.131324 0.0162009 16711680
0.247 0.132061 0.0164238 16711680
0.247139 0.13279 0.0165739 16711680
0.252944 0.0944554 0.0228815 16711680
0.252861 0.0951531 0.0227729 16711680
0.252619 0.0958243 0.0224788 16711680
0.252355 0.0964922 0.0221598 16711680
0.252196 0.0971779 0.0219636 16711680
0.251831 0.0978293 0.0215254 16711680
0.251789 0.0985346 0.0214658 16711680
0.251457 0.0991922 0.0210671 16711680
0.251254 0.0998713 0.0208187 16711680
0.251134 0.100564 0.0206674 16711680
0.250936 0.101244 0.020425 16711680
0.250847 0.101942 0.0203092 16711680
0.250576 0.102611 0.0199813 16711680
0.250679 0.10334 0.0200902 16711680
0.250389 0.104006 0.0197411 16711680
0.250515 0.104738 0.0198759 16711680
0.25018 0.105397 0.0194745 16711680
0.250329 0.106133 0.019636 16711680
0.249961 0.106787 0.0191954 16711680
0.249942 0.107497 0.0191621 16711680
0.250406 0.108281 0.0196923 16711680
0.251268 0.109126 0.020686 16711680
0.25052 0.109722 0.0198022 16711680
0.249951 0.110346 0.019127 16711680
0.250511 0.111143 0.0197687 16711680
0.250626 0.111872 0.0198915 16711680
0.250027 0.112493 0.0191808 16711680
0.249529 0.11313 0.0185894 16711680
0.249355 0.113815 0.0183743 16711680
0.248846 0.114451 0.0177692 16711680
0.248615 0.115129 0.0174884 16711680
0.248558 0.115833 0.0174106 16711680
0.248291 0.116506 0.0170881 16711680
0.24839 0.117232 0.0171919 16711680
0.248063 0.117897 0.0167984 16711680
0.248126 0.118618 0.0168613 16711680
0.247835 0.119288 0.0165102 16711680
0.247818 0.119998 0.0164789 16711680
0.247626 0.120683 0.0162433 16711680
0.247599 0.121391 0.0162007 16711680
0.24755 0.122096 0.0161325 16711680
0.247485 0.122799 0.0160446 16711680
0.247472 0.123509 0.016018 16711680
0.247331 0.124201 0.0158428 16711680
0.247409 0.124924 0.0159223 16711680
0.247246 0.125613 0.0157205 16711680
0.247353 0.12634 0.0158345 16711680
0.247192 0.127029 0.0156348 16711680
0.247298 0.127756 0.0157477 16711680
0.247146 0.128446 0.0155593 16711680
0.247231 0.129169 0.0156467 16711680
0.247172 0.129873 0.0155669 16711680
0.247334 0.130606 0.015744 16711680
0.247186 0.131297 0.0155598 16711680
0.247422 0.13204 0.0158236 16711680
0.247298 0.132734 0.0156687 16711680
0.247502 0.133472 0.0158954 16711680
0.24734 0.134161 0.0156949 16711680
0.24762 0.134908 0.0160098 16711680
0.253962 0.0931063 0.0230021 16711680
0.253864 0.0938014 0.0228767 16711680
0.253492 0.0944502 0.0224308 16711680
0.25343 0.0951516 0.022347 16711680
0.253169 0.0958196 0.0220308 16711680
0.25295 0.0964949 0.0217633 16711680
0.252792 0.0971806 0.0215682 16711680
0.252464 0.0978382 0.0211735 16711680
0.252365 0.0985339 0.0210459 16711680
0.252093 0.0992014 0.020718 16711680
0.252069 0.0999095 0.0206776 16711680
0.251805 0.100579 0.0203589 16711680
0.251658 0.101267 0.0201757 16711680
0.251601 0.10197 0.0200975 16711680
0.251403 0.10265 0.019855 16711680
0.251475 0.103374 0.0199277 16711680
0.251279 0.104055 0.0196873 16711680
0.251354 0.104779 0.0197632 16711680
0.251072 0.105446 0.0194231 16711680
0.251265 0.106189 0.019637 16711680
0.250841 0.106834 0.0191306 16711680
0.250849 0.107547 0.0191286 16711680
0.251089 0.108296 0.0193969 16711680
0.252008 0.10915 0.0204594 16711680
0.251457 0.109776 0.0198044 16711680
0.250836 0.110393 0.0190681 16711680
0.250957 0.111123 0.0191975 16711680
0.251525 0.11192 0.0198494 16711680
0.250832 0.112526 0.0190288 16711680
0.250492 0.113187 0.0186208 16711680
0.250216 0.113857 0.0182868 16711680
0.249676 0.114488 0.0176452 16711680
0.249623 0.115192 0.0175723 16711680
0.249298 0.115856 0.0171816 16711680
0.2491 0.116539 0.0169392 16711680
0.249122 0.117254 0.0169532 16711680
0.24889 0.117932 0.0166709 16711680
0.249025 0.118664 0.0168171 16711680
0.248596 0.119314 0.0163053 16711680
0.248666 0.120036 0.0163761 16711680
0.2484 0.12071 0.0160542 16711680
0.248455 0.121429 0.0161064 16711680
0.248281 0.122117 0.0158925 16711680
0.248317 0.122834 0.0159233 16711680
0.248173 0.123525 0.0157439 16711680
0.248097 0.124226 0.015644 16711680
0.248133 0.124943 0.0156745 16711680
0.24799 0.125635 0.0154955 16711680
0.248008 0.126349 0.0155059 16711680
0.247827 0.127036 0.015283 16711680
0.247929 0.127761 0.0153906 16711680
0.247788 0.128454 0.0152156 16711680
0.24787 0.129176 0.0153 16711680
0.247768 0.129874 0.0151693 16711680
0.247864 0.130598 0.0152705 16711680
0.24771 0.131289 0.0150795 16711680
0.247824 0.132015 0.0152014 16711680
0.247757 0.132717 0.0151113 16711680
0.247884 0.133445 0.0152483 16711680
0.247739 0.134137 0.0150678 16711680
0.247978 0.134879 0.0153358 16711680
0.247898 0.135579 0.015231 16711680
0.24799 0.136301 0.0153282 16711680
0.255273 0.0918086 0.0234661 16711680
0.25489 0.0924544 0.0230069 16711680
0.254492 0.0930982 0.022531 16711680
0.254431 0.0937993 0.0224473 16711680
0.254103 0.0944556 0.0220531 16711680
0.253989 0.0951483 0.0219091 16711680
0.253756 0.0958209 0.0216252 16711680
0.253608 0.0965081 0.0214411 16711680
0.253446 0.0971929 0.02124 16711680
0.253135 0.0978534 0.020866 16711680
0.253115 0.0985619 0.0208304 16711680
0.252815 0.0992247 0.0204692 16711680
0.252812 0.0999362 0.0204539 16711680
0.25249 0.100596 0.0200667 16711680
0.252533 0.101315 0.0201058 16711680
0.252369 0.102 0.0199026 16711680
0.252305 0.102702 0.0198169 16711680
0.252259 0.103407 0.0197519 16711680
0.252185 0.104107 0.0196534 16711680
0.252141 0.104811 0.0195905 16711680
0.252047 0.105508 0.0194702 16711680
0.252042 0.106219 0.0194522 16711680
0.25169 0.106876 0.0190301 16711680
0.251861 0.107614 0.0192182 16711680
0.251904 0.108333 0.0192574 16711680
0.25262 0.109155 0.0200834 16711680
0.252674 0.109874 0.0201341 16711680
0.251835 0.110456 0.0191425 16711680
0.251709 0.111148 0.0189843 16711680
0.252342 0.111956 0.0197128 16711680
0.251654 0.112563 0.0188977 16711680
0.251385 0.113233 0.0185724 16711680
0.250959 0.113881 0.0180631 16711680
0.25044 0.114515 0.0174458 16711680
0.250459 0.11523 0.0174564 16711680
0.250068 0.115883 0.0169884 16711680
0.249998 0.116585 0.0168947 16711680
0.249916 0.117285 0.0167885 16711680
0.249765 0.117974 0.0166006 16711680
0.249816 0.118694 0.0166489 16711680
0.249503 0.11936 0.016271 16711680
0.249561 0.12008 0.0163287 16711680
0.249191 0.120739 0.0158843 16711680
0.249383 0.121478 0.0160973 16711680
0.249078 0.122146 0.0157294 16711680
0.249166 0.122871 0.0158211 16711680
0.248994 0.123558 0.0156096 16711680
0.249063 0.124279 0.0156785 16711680
0.248859 0.124963 0.0154295 16711680
0.248784 0.125664 0.01533 16711680
0.248771 0.126373 0.0153041 16711680
0.248658 0.127069 0.0151612 16711680
0.248691 0.127785 0.0151875 16711680
0.248521 0.128474 0.0149784 16711680
0.248624 0.129199 0.0150874 16711680
0.248446 0.129886 0.0148677 16711680
0.248518 0.130607 0.0149412 16711680
0.248326 0.131293 0.0147058 16711680
0.248405 0.132014 0.0147861 16711680
0.248279 0.132709 0.0146284 16711680
0.248399 0.133435 0.0147572 16711680
0.248228 0.134124 0.0145466 16711680
0.248356 0.134851 0.0146848 16711680
0.2483 0.135555 0.0146081 16711680
0.248469 0.136287 0.0147951 16711680
0.248629 0.137018 0.0149708 16711680
0.248936 0.137767 0.0153178 16711680
0.256532 0.0905038 0.0238702 16711680
0.255936 0.0911119 0.0231613 16711680
0.255809 0.0918015 0.0230024 16711680
0.255425 0.0924472 0.0225421 16711680
0.255101 0.0931033 0.0221512 16711680
0.255046 0.0938056 0.0220754 16711680
0.254704 0.0944595 0.0216652 16711680
0.254701 0.0951707 0.02165 16711680
0.254418 0.095835 0.0213082 16711680
0.2544 0.0965436 0.0212749 16711680
0.254216 0.0972247 0.021049 16711680
0.254104 0.0979178 0.0209062 16711680
0.25396 0.0986058 0.0207267 16711680
0.253672 0.0992702 0.0203785 16711680
0.253757 0.0999959 0.0204666 16711680
0.253345 0.100641 0.019974 16711680
0.253478 0.101374 0.0201186 16711680
0.253212 0.102043 0.0197954 16711680
0.253298 0.102768 0.0198847 16711680
0.253013 0.103434 0.0195403 16711680
0.253141 0.104166 0.0196791 16711680
0.252987 0.104854 0.0194876 16711680
0.253103 0.105583 0.0196121 16711680
0.252847 0.106255 0.0193017 16711680
0.252616 0.10693 0.01902 16711680
0.252703 0.107655 0.0191104 16711680
0.252691 0.108365 0.0190849 16711680
0.253185 0.109152 0.0196515 16711680
0.253699 0.109942 0.0202419 16711680
0.252895 0.11053 0.0192899 16711680
0.252262 0.111144 0.0185384 16711680
0.253078 0.111979 0.0194821 16711680
0.25268 0.11263 0.0190052 16711680
0.252444 0.113305 0.0187184 16711680
0.251769 0.113915 0.017917 16711680
0.251384 0.114569 0.0174559 16711680
0.251245 0.11526 0.0172825 16711680
0.250844 0.115912 0.0168024 16711680
0.250847 0.116624 0.0167941 16711680
0.250634 0.117304 0.0165337 16711680
0.250548 0.118003 0.0164222 16711680
0.250543 0.118714 0.0164057 16711680
0.2504 0.119405 0.0162263 16711680
0.250393 0.120116 0.0162073 16711680
0.250176 0.120796 0.0159426 16711680
0.250109 0.121498 0.0158526 16711680
0.249866 0.122175 0.0155571 16711680
0.249919 0.122894 0.015608 16711680
0.24971 0.123576 0.0153521 16711680
0.249804 0.124301 0.0154514 16711680
0.249585 0.124982 0.0151838 16711680
0.24965 0.125703 0.0152497 16711680
0.249543 0.126399 0.015113 16711680
0.249625 0.127121 0.0151972 16711680
0.249444 0.127808 0.0149745 16711680
0.249414 0.128515 0.0149289 16711680
0.249484 0.129236 0.0149994 16711680
0.249364 0.129931 0.0148476 16711680
0.249334 0.130637 0.014801 16711680
0.249047 0.13131 0.0144553 16711680
0.249174 0.132038 0.0145921 16711680
0.24897 0.132722 0.0143428 16711680
0.249144 0.133456 0.0145355 16711680
0.249009 0.134149 0.0143663 16711680
0.248897 0.134845 0.0142235 16711680
0.248733 0.135535 0.0140213 16711680
0.248974 0.136277 0.0142918 16711680
0.249032 0.136994 0.0143486 16711680
0.249479 0.137761 0.0148602 16711680
0.249534 0.138478 0.0149139 16711680
0.249761 0.139217 0.0151688 16711680
0.261105 0.0848176 0.0282327 16711680
0.260523 0.0854225 0.0275398 16711680
0.257132 0.0897966 0.0234928 16711680
0.256993 0.0904836 0.0233188 16711680
0.256494 0.0911086 0.0227234 16711680
0.256388 0.0918017 0.0225883 16711680
0.256099 0.0924635 0.0222389 16711680
0.255874 0.0931366 0.0219643 16711680
0.25574 0.0938253 0.0217962 16711680
0.255439 0.094486 0.0214331 16711680
0.255485 0.0952053 0.0214756 16711680
0.25517 0.0958639 0.0210952 16711680
0.255271 0.0965924 0.0212026 16711680
0.255003 0.0972594 0.0208782 16711680
0.254994 0.0979694 0.0208565 16711680
0.254753 0.0986412 0.0205632 16711680
0.254633 0.0993328 0.0204108 16711680
0.254577 0.100035 0.0203347 16711680
0.254268 0.100696 0.0199614 16711680
0.254424 0.101433 0.0201323 16711680
0.254095 0.102092 0.0197368 16711680
0.254208 0.102821 0.0198575 16711680
0.253856 0.103476 0.0194348 16711680
0.254082 0.104224 0.0196884 16711680
0.253745 0.104882 0.0192817 16711680
0.253984 0.105631 0.019551 16711680
0.253635 0.106287 0.0191308 16711680
0.253466 0.106972 0.0189217 16711680
0.253406 0.107674 0.018841 16711680
0.253306 0.10837 0.0187125 16711680
0.253825 0.109161 0.0193087 16711680
0.254702 0.110007 0.0203243 16711680
0.253732 0.110569 0.0191773 16711680
0.252876 0.111149 0.018165 16711680
0.25364 0.111976 0.019048 16711680
0.253584 0.112678 0.0189707 16711680
0.253279 0.113343 0.018603 16711680
0.252487 0.113935 0.0176646 16711680
0.252179 0.114601 0.0172935 16711680
0.251961 0.115279 0.0170273 16711680
0.251544 0.115929 0.0165279 16711680
0.251623 0.116652 0.016609 16711680
0.251361 0.117325 0.0162904 16711680
0.251384 0.11804 0.0163065 16711680
0.251263 0.118734 0.0161535 16711680
0.251168 0.119432 0.0160315 16711680
0.251061 0.120128 0.0158949 16711680
0.250957 0.120824 0.0157628 16711680
0.250834 0.121518 0.0156078 16711680
0.25055 0.122189 0.0152636 16711680
0.25062 0.122911 0.0153342 16711680
0.250427 0.123595 0.0150979 16711680
0.250532 0.124321 0.0152097 16711680
0.250306 0.125001 0.0149338 16711680
0.250384 0.125723 0.0150142 16711680
0.250255 0.126416 0.0148523 16711680
0.250409 0.127149 0.0150218 16711680
0.250217 0.127833 0.0147852 16711680
0.250261 0.128551 0.0148264 16711680
0.250196 0.129253 0.0147392 16711680
0.250465 0.13 0.0150427 16711680
0.250313 0.13069 0.0148534 16711680
0.250218 0.131388 0.0147313 16711680
0.250149 0.132089 0.0146393 16711680
0.249903 0.132768 0.0143405 16711680
0.249903 0.133478 0.0143297 16711680
0.24967 0.134159 0.0140452 16711680
0.249661 0.134868 0.0140241 16711680
0.249467 0.135554 0.0137862 16711680
0.249495 0.136268 0.0138072 16711680
0.249469 0.136975 0.0137664 16711680
0.24995 0.137747 0.0143185 16711680
0.249921 0.138453 0.014274 16711680
0.250143 0.139191 0.0145226 16711680
0.250388 0.139931 0.0147982 16711680
0.250681 0.140677 0.015131 16711680
0.262781 0.0835984 0.02913 16711680
0.261954 0.084158 0.0281508 16711680
0.261492 0.084784 0.0275986 16711680
0.26097 0.0853998 0.0269756 16711680
0.260471 0.0860204 0.0263801 16711680
0.260066 0.0866582 0.0258942 16711680
0.258508 0.0885144 0.0240362 16711680
0.258023 0.0891403 0.0234561 16711680
0.257698 0.0897948 0.0230647 16711680
0.257535 0.0904776 0.0228629 16711680
0.257099 0.0911134 0.0223413 16711680
0.257048 0.0918158 0.0222695 16711680
0.256751 0.0924762 0.0219104 16711680
0.256592 0.0931605 0.021713 16711680
0.256435 0.0938452 0.0215183 16711680
0.25624 0.0945236 0.0212787 16711680
0.256208 0.0952297 0.0212307 16711680
0.25593 0.0958945 0.0208939 16711680
0.255996 0.0966169 0.0209594 16711680
0.255705 0.0972798 0.0206072 16711680
0.255792 0.0980057 0.0206982 16711680
0.255495 0.0986679 0.0203389 16711680
0.255464 0.0993743 0.0202922 16711680
0.255338 0.100065 0.0201331 16711680
0.255252 0.100762 0.0200217 16711680
0.255166 0.10146 0.0199094 16711680
0.254912 0.10213 0.0196012 16711680
0.255008 0.102857 0.0197018 16711680
0.254691 0.103517 0.01932 16711680
0.254825 0.10425 0.0194651 16711680
0.254486 0.104907 0.0190575 16711680
0.254699 0.105652 0.0192962 16711680
0.254396 0.106316 0.0189297 16711680
0.254362 0.107022 0.0188791 16711680
0.254157 0.107701 0.0186269 16711680
0.254186 0.108416 0.0186503 16711680
0.254483 0.109173 0.0189866 16711680
0.255515 0.110043 0.0201858 16711680
0.254905 0.11066 0.0194597 16711680
0.254003 0.111232 0.0183918 16711680
0.254091 0.111957 0.0184838 16711680
0.254522 0.112732 0.0189775 16711680
0.253992 0.113363 0.0183458 16711680
0.253322 0.113973 0.0175489 16711680
0.25323 0.11467 0.0174304 16711680
0.25274 0.115308 0.0168453 16711680
0.252361 0.115964 0.01639 16711680
0.25238 0.116678 0.0164016 16711680
0.25211 0.11735 0.0160736 16711680
0.252186 0.118072 0.0161517 16711680
0.251987 0.118754 0.0159074 16711680
0.251979 0.119465 0.015888 16711680
0.251816 0.120152 0.0156853 16711680
0.251789 0.12086 0.015643 16711680
0.251572 0.12154 0.0153769 16711680
0.251396 0.122226 0.0151602 16711680
0.251375 0.122935 0.0151243 16711680
0.251092 0.123606 0.0147824 16711680
0.251222 0.124336 0.0149235 16711680
0.251022 0.125019 0.0146775 16711680
0.251129 0.125745 0.0147924 16711680
0.250958 0.126433 0.0145811 16711680
0.251131 0.127167 0.0147728 16711680
0.250879 0.127844 0.0144666 16711680
0.251024 0.128575 0.0146259 16711680
0.250954 0.129276 0.014532 16711680
0.251132 0.130011 0.0147305 16711680
0.250973 0.1307 0.0145326 16711680
0.251174 0.131437 0.0147578 16711680
0.251016 0.132127 0.0145619 16711680
0.251028 0.132838 0.014564 16711680
0.250868 0.133528 0.0143654 16711680
0.250637 0.134208 0.0140843 16711680
0.250452 0.134894 0.0138561 16711680
0.250143 0.135565 0.0134833 16711680
0.250336 0.1363 0.0136985 16711680
0.250186 0.136992 0.0135114 16711680
0.250428 0.137733 0.0137851 16711680
0.250432 0.138443 0.0137782 16711680
0.250629 0.139178 0.013998 16711680
0.250759 0.139904 0.0141401 16711680
0.251259 0.140676 0.0147154 16711680
0.251844 0.141457 0.0153894 16711680
0.251631 0.14214 0.0151296 16711680
0.263675 0.0829483 0.0291029 16711680
0.262624 0.0834664 0.0278593 16711680
0.26241 0.0841367 0.0275972 16711680
0.262096 0.0847894 0.0272185 16711680
0.261353 0.0853656 0.0263361 16711680
0.260579 0.0859372 0.0254174 16711680
0.260321 0.0866014 0.025104 16711680
0.259754 0.0872113 0.024428 16711680
0.259081 0.0878031 0.023628 16711680
0.258976 0.0884953 0.0234931 16711680
0.25853 0.0891283 0.0229599 16711680
0.25828 0.0897956 0.0226551 16711680
0.258105 0.0904763 0.0224388 16711680
0.257704 0.0911181 0.0219576 16711680
0.257697 0.0918282 0.0219387 16711680
0.257353 0.0924805 0.0215245 16711680
0.257208 0.0931671 0.0213438 16711680
0.257079 0.0938566 0.0211815 16711680
0.256906 0.0945385 0.0209672 16711680
0.256827 0.0952365 0.0208628 16711680
0.256625 0.0959139 0.0206147 16711680
0.256645 0.0966286 0.0206274 16711680
0.256466 0.0973101 0.0204064 16711680
0.25647 0.0980221 0.0204002 16711680
0.256256 0.0986981 0.0201389 16711680
0.256225 0.0994041 0.0200906 16711680
0.256077 0.100091 0.0199062 16711680
0.256032 0.100795 0.0198429 16711680
0.255876 0.101481 0.0196488 16711680
0.255783 0.102177 0.0195282 16711680
0.255745 0.102882 0.0194734 16711680
0.255626 0.103574 0.019322 16711680
0.25554 0.104272 0.0192106 16711680
0.255259 0.104938 0.0188699 16711680
0.255447 0.105679 0.0190796 16711680
0.255156 0.106344 0.0187273 16711680
0.255173 0.107058 0.0187359 16711680
0.254864 0.10772 0.0183629 16711680
0.254941 0.108443 0.0184418 16711680
0.255205 0.109195 0.0187408 16711680
0.256372 0.110086 0.020098 16711680
0.256272 0.11078 0.0199704 16711680
0.255684 0.1114 0.0192693 16711680
0.255528 0.112087 0.0190761 16711680
0.255866 0.112848 0.0194613 16711680
0.255632 0.113523 0.0191761 16711680
0.25561 0.114229 0.0191386 16711680
0.255434 0.114913 0.0189215 16711680
0.255549 0.11564 0.0190451 16711680
0.255435 0.116332 0.0189004 16711680
0.255402 0.117037 0.0188515 16711680
0.255265 0.117727 0.0186797 16711680
0.255265 0.118436 0.018669 16711680
0.255121 0.119125 0.0184884 16711680
0.255002 0.119817 0.0183376 16711680
0.254885 0.12051 0.0181903 16711680
0.254182 0.121119 0.0173546 16711680
0.254012 0.121805 0.0171442 16711680
0.253458 0.122436 0.0164839 16711680
0.252743 0.123045 0.0156337 16711680
0.252671 0.123746 0.0155385 16711680
0.252049 0.124369 0.0147982 16711680
0.251899 0.12506 0.0146106 16711680
0.251936 0.125776 0.0146439 16711680
0.251723 0.126457 0.0143832 16711680
0.251876 0.127189 0.014551 16711680
0.251634 0.127867 0.0142567 16711680
0.251774 0.128597 0.0144104 16711680
0.251661 0.129292 0.0142664 16711680
0.251826 0.130025 0.0144494 16711680
0.25165 0.130712 0.0142318 16711680
0.251821 0.131445 0.0144216 16711680
0.251702 0.13214 0.0142717 16711680
0.251905 0.132877 0.0144988 16711680
0.251775 0.13357 0.0143356 16711680
0.251791 0.134282 0.0143428 16711680
0.251505 0.134955 0.0139966 16711680
0.251019 0.135602 0.0134152 16711680
0.251247 0.136342 0.0136726 16711680
0.25101 0.137022 0.013383 16711680
0.251149 0.137749 0.0135354 16711680
0.251005 0.138441 0.0133562 16711680
0.251119 0.139166 0.0134784 16711680
0.251126 0.139876 0.0134757 16711680
0.251596 0.140645 0.0140171 16711680
0.25232 0.141443 0.0148557 16711680
0.252374 0.142159 0.0149078 16711680
0.252636 0.142899 0.015204 16711680
0.264794 0.0823394 0.0293396 16711680
0.263839 0.0828739 0.0282078 16711680
0.26322 0.0834703 0.0274701 16711680
0.262973 0.0841348 0.0271693 16711680
0.262514 0.0847612 0.0266193 16711680
0.261661 0.0853178 0.0256077 16711680
0.260942 0.0858993 0.0247525 16711680
0.260731 0.086572 0.0244941 16711680
0.260184 0.0871855 0.0238421 16711680
0.259673 0.0878059 0.0232309 16711680
0.259476 0.0884821 0.0229888 16711680
0.25905 0.0891183 0.0224775 16711680
0.258751 0.0897773 0.0221162 16711680
0.258633 0.0904679 0.0219667 16711680
0.258285 0.0911189 0.0215473 16711680
0.258262 0.0918261 0.0215089 16711680
0.257895 0.0924743 0.0210669 16711680
0.257846 0.0931773 0.0209986 16711680
0.257668 0.0938583 0.0207787 16711680
0.257544 0.0945488 0.0206228 16711680
0.257429 0.0952405 0.0204763 16711680
0.257296 0.0959295 0.0203094 16711680
0.257268 0.0966362 0.0202658 16711680
0.25714 0.097326 0.0201041 16711680
0.257081 0.0980276 0.0200247 16711680
0.256899 0.0987086 0.0197994 16711680
0.256924 0.099424 0.0198183 16711680
0.256767 0.100109 0.0196227 16711680
0.256753 0.100818 0.0195957 16711680
0.256542 0.101495 0.0193371 16711680
0.256513 0.102201 0.0192913 16711680
0.256417 0.102897 0.0191679 16711680
0.256331 0.103594 0.0190563 16711680
0.25633 0.104305 0.0190438 16711680
0.256164 0.10499 0.0188388 16711680
0.256174 0.105702 0.0188386 16711680
0.255942 0.106376 0.018556 16711680
0.256036 0.107102 0.0186546 16711680
0.255753 0.107769 0.0183125 16711680
0.256001 0.108518 0.0185928 16711680
0.256584 0.109319 0.0192655 16711680
0.258529 0.110329 0.021538 16711680
0.258494 0.111032 0.0214859 16711680
0.258559 0.111751 0.0215508 16711680
0.258509 0.112452 0.0214819 16711680
0.258456 0.113152 0.0214088 16711680
0.258322 0.113841 0.02124 16711680
0.258245 0.114537 0.021139 16711680
0.258201 0.115239 0.0210761 16711680
0.258108 0.115934 0.0209563 16711680
0.258029 0.11663 0.0208526 16711680
0.257897 0.117319 0.0206876 16711680
0.25781 0.118015 0.020574 16711680
0.257625 0.118696 0.0203464 16711680
0.257553 0.119394 0.0202512 16711680
0.257367 0.120075 0.0200216 16711680
0.257291 0.120773 0.0199215 16711680
0.257087 0.121452 0.0196713 16711680
0.256754 0.122113 0.0192701 16711680
0.25684 0.122833 0.0193601 16711680
0.25611 0.123438 0.0184915 16711680
0.256245 0.124166 0.0186394 16711680
0.255565 0.12478 0.0178306 16711680
0.254868 0.125391 0.0170008 16711680
0.254237 0.126013 0.01625 16711680
0.253482 0.126619 0.0153528 16711680
0.252943 0.127255 0.0147083 16711680
0.252723 0.127936 0.0144399 16711680
0.252654 0.128637 0.0143477 16711680
0.25245 0.12932 0.0140973 16711680
0.252682 0.130061 0.0143586 16711680
0.252477 0.130744 0.0141076 16711680
0.252588 0.131469 0.0142276 16711680
0.252378 0.132151 0.0139694 16711680
0.252603 0.132891 0.0142233 16711680
0.25241 0.133576 0.0139856 16711680
0.252484 0.134296 0.0140618 16711680
0.252363 0.13499 0.0139089 16711680
0.252133 0.13567 0.0136286 16711680
0.252034 0.136367 0.0135012 16711680
0.25191 0.137061 0.0133444 16711680
0.251845 0.137763 0.0132573 16711680
0.251684 0.138453 0.0130582 16711680
0.251732 0.139169 0.0131031 16711680
0.251651 0.139868 0.0129974 16711680
0.252025 0.140625 0.0134264 16711680
0.252477 0.14139 0.0139459 16711680
0.252755 0.142133 0.014262 16711680
0.253247 0.142902 0.014829 16711680
0.253225 0.143608 0.0147916 16711680
0.253339 0.14433 0.0149152 16711680
0.265658 0.0823927 0.0292672 16711680
0.265257 0.0830275 0.0287845 16711680
0.265168 0.0837194 0.0286697 16711680
0.263993 0.0842153 0.0272784 16711680
0.263144 0.0847714 0.0262704 16711680
0.262005 0.0852766 0.0249215 16711680
0.261364 0.0858722 0.0241581 16711680
0.261025 0.0865221 0.0237492 16711680
0.260598 0.0871569 0.0232365 16711680
0.260121 0.0877834 0.0226656 16711680
0.259977 0.0884688 0.0224844 16711680
0.259625 0.0891181 0.0220609 16711680
0.259277 0.0897685 0.021641 16711680
0.25913 0.0904539 0.0214567 16711680
0.258772 0.0911033 0.0210257 16711680
0.258726 0.0918067 0.0209615 16711680
0.258439 0.0924687 0.020613 16711680
0.258363 0.0931671 0.0205128 16711680
0.258189 0.0938487 0.0202974 16711680
0.258082 0.0945419 0.0201609 16711680
0.257989 0.0952375 0.02004 16711680
0.257837 0.0959233 0.0198507 16711680
0.257827 0.0966329 0.0198281 16711680
0.257693 0.0973219 0.0196604 16711680
0.257666 0.0980286 0.0196178 16711680
0.257523 0.0987161 0.0194386 16711680
0.257574 0.0994357 0.0194874 16711680
0.257375 0.100114 0.0192424 16711680
0.257467 0.10084 0.0193403 16711680
0.257241 0.101514 0.0190636 16711680
0.257246 0.102226 0.0190587 16711680
0.257122 0.102917 0.0189018 16711680
0.257182 0.103638 0.0189619 16711680
0.257084 0.104333 0.0188361 16711680
0.257249 0.10507 0.0190185 16711680
0.257053 0.10575 0.0187781 16711680
0.257129 0.106472 0.0188566 16711680
0.257123 0.107182 0.0188375 16711680
0.257906 0.108014 0.0197468 16711680
0.25881 0.108865 0.0207988 16711680
0.259666 0.109707 0.0217931 16711680
0.259772 0.110432 0.0219066 16711680
0.259644 0.11112 0.0217458 16711680
0.259486 0.111804 0.0215496 16711680
0.259179 0.112466 0.0211778 16711680
0.259218 0.11318 0.0212128 16711680
0.259008 0.113857 0.0209552 16711680
0.258979 0.114561 0.0209107 16711680
0.258835 0.115247 0.0207304 16711680
0.258798 0.11595 0.0206767 16711680
0.258681 0.116641 0.0205276 16711680
0.25859 0.117336 0.0204104 16711680
0.258458 0.118025 0.0202448 16711680
0.258293 0.118709 0.02004 16711680
0.258235 0.119409 0.0199614 16711680
0.258044 0.120089 0.0197253 16711680
0.257989 0.120789 0.0196508 16711680
0.257786 0.121468 0.0194013 16711680
0.25776 0.122173 0.0193598 16711680
0.257609 0.12286 0.0191718 16711680
0.257429 0.123543 0.0189497 16711680
0.257335 0.124237 0.0188279 16711680
0.256938 0.12489 0.0183505 16711680
0.256793 0.125578 0.0181698 16711680
0.256427 0.126236 0.0177289 16711680
0.255553 0.126824 0.0166905 16711680
0.255379 0.127509 0.0164759 16711680
0.254846 0.128146 0.0158391 16711680
0.253805 0.128713 0.0146046 16711680
0.253656 0.129403 0.0144185 16711680
0.253477 0.130089 0.0141983 16711680
0.253332 0.13078 0.0140169 16711680
0.253351 0.131493 0.0140287 16711680
0.253068 0.132165 0.0136851 16711680
0.253281 0.132903 0.0139241 16711680
0.253064 0.133585 0.0136591 16711680
0.253078 0.134297 0.013665 16711680
0.25293 0.134987 0.0134803 16711680
0.252841 0.135686 0.0133653 16711680
0.252667 0.136373 0.013149 16711680
0.252552 0.137068 0.0130035 16711680
0.252435 0.137763 0.0128555 16711680
0.252317 0.138458 0.0127059 16711680
0.252371 0.139175 0.0127584 16711680
0.252244 0.139869 0.0125992 16711680
0.252464 0.140606 0.0128465 16711680
0.25255 0.141326 0.0129364 16711680
0.253022 0.142094 0.0134813 16711680
0.253573 0.14287 0.0141182 16711680
0.253711 0.143595 0.0142697 16711680
0.254078 0.144348 0.0146903 16711680
0.253862 0.14503 0.0144256 16711680
0.261076 0.0864289 0.0227172 16711680
0.26096 0.087119 0.0225694 16711680
0.260433 0.0877368 0.0219393 16711680
0.260289 0.0884225 0.021759 16711680
0.26006 0.0890934 0.0214791 16711680
0.259837 0.0897655 0.021206 16711680
0.259701 0.090453 0.0210348 16711680
0.259285 0.0910923 0.0205355 16711680
0.25925 0.0917975 0.0204833 16711680
0.258962 0.0924593 0.0201335 16711680
0.258816 0.0931458 0.0199517 16711680
0.258679 0.0938337 0.0197786 16711680
0.258539 0.0945214 0.0196033 16711680
0.258534 0.095232 0.0195869 16711680
0.258364 0.0959147 0.0193765 16711680
0.258358 0.096625 0.0193578 16711680
0.258208 0.0973112 0.0191708 16711680
0.258201 0.0980214 0.0191523 16711680
0.258087 0.0987136 0.0190068 16711680
0.258091 0.0994255 0.0190009 16711680
0.258011 0.100123 0.0188956 16711680
0.258063 0.100843 0.0189464 16711680
0.257878 0.101524 0.0187184 16711680
0.258295 0.102302 0.0191978 16711680
0.258205 0.102998 0.019081 16711680
0.258496 0.103756 0.0194128 16711680
0.25859 0.104481 0.0195124 16711680
0.259103 0.105273 0.0201049 16711680
0.259822 0.106097 0.0209395 16711680
0.258807 0.118699 0.0195522 16711680
0.258767 0.119401 0.0194952 16711680
0.258593 0.120084 0.0192789 16711680
0.25852 0.120782 0.0191826 16711680
0.258358 0.121467 0.0189819 16711680
0.258363 0.122176 0.0189773 16711680
0.258183 0.122858 0.0187538 16711680
0.258111 0.123557 0.0186597 16711680
0.258004 0.12425 0.0185231 16711680
0.257761 0.124924 0.0182266 16711680
0.257721 0.125626 0.0181682 16711680
0.257296 0.126276 0.0176578 16711680
0.257169 0.126966 0.0174977 16711680
0.256975 0.127648 0.0172586 16711680
0.256024 0.128227 0.0161297 16711680
0.255083 0.128808 0.0150126 16711680
0.255034 0.129511 0.0149442 16711680
0.254375 0.130131 0.0141587 16711680
0.254162 0.130813 0.0138975 16711680
0.254084 0.131512 0.013795 16711680
0.253856 0.132192 0.0135162 16711680
0.253854 0.132902 0.0135024 16711680
0.253679 0.133589 0.0132862 16711680
0.253718 0.134304 0.0133214 16711680
0.253527 0.134989 0.0130861 16711680
0.253481 0.135692 0.0130213 16711680
0.253213 0.136368 0.0126957 16711680
0.253017 0.137053 0.0124539 16711680
0.252963 0.137756 0.0123806 16711680
0.252863 0.138453 0.0122524 16711680
0.252953 0.139174 0.0123473 16711680
0.252901 0.139877 0.0122751 16711680
0.253063 0.140607 0.0124552 16711680
0.252958 0.141304 0.0123214 16711680
0.253344 0.142061 0.0127647 16711680
0.253677 0.142811 0.0131458 16711680
0.253897 0.143546 0.0133941 16711680
0.254554 0.144334 0.0141563 16711680
0.254727 0.145063 0.0143498 16711680
0.254749 0.145774 0.0143644 16711680
0.2544 0.14644 0.013943 16711680
0.25995 0.0889731 0.0202552 16711680
0.259907 0.0896772 0.0201944 16711680
0.260035 0.0904109 0.0203341 16711680
0.259647 0.091055 0.0198666 16711680
0.259576 0.0917542 0.0197725 16711680
0.259368 0.0924299 0.0195163 16711680
0.259276 0.0931256 0.0193974 16711680
0.259157 0.0938168 0.0192465 16711680
0.258947 0.0944926 0.0189883 16711680
0.259061 0.0952235 0.0191128 16711680
0.258756 0.0958834 0.0187426 16711680
0.258854 0.0966113 0.018847 16711680
0.258708 0.0972983 0.0186651 16711680
0.258771 0.09802 0.0187283 16711680
0.258735 0.0987253 0.0186751 16711680
0.25885 0.0994552 0.0187987 16711680
0.25967 0.100301 0.0197538 16711680
0.260965 0.101223 0.0212669 16711680
0.258596 0.123543 0.0181372 16711680
0.258515 0.12424 0.0180316 16711680
0.258247 0.12491 0.017705 16711680
0.258271 0.125622 0.0177224 16711680
0.257969 0.126288 0.0173563 16711680
0.257936 0.126992 0.0173069 16711680
0.257528 0.127644 0.0168169 16711680
0.256582 0.128223 0.015692 16711680
0.255798 0.128825 0.0147582 16711680
0.256153 0.129583 0.0151657 16711680
0.25508 0.130148 0.0138925 16711680
0.255392 0.130899 0.0142486 16711680
0.254918 0.131545 0.0136802 16711680
0.25443 0.13219 0.0130956 16711680
0.254561 0.132918 0.0132388 16711680
0.254389 0.133605 0.0130252 16711680
0.254479 0.134326 0.0131215 16711680
0.254154 0.134994 0.0127282 16711680
0.254016 0.135686 0.0125543 16711680
0.25371 0.136356 0.0121835 16711680
0.253497 0.137039 0.0119233 16711680
0.253495 0.137749 0.0119102 16711680
0.253453 0.138453 0.01185 16711680
0.253533 0.139173 0.0119339 16711680
0.253406 0.139867 0.0117733 16711680
0.253622 0.140604 0.012017 16711680
0.253627 0.141314 0.012013 16711680
0.253794 0.142044 0.0121989 16711680
0.253855 0.14276 0.0122594 16711680
0.254249 0.143518 0.0127134 16711680
0.254803 0.144293 0.0133553 16711680
0.254968 0.145021 0.013539 16711680
0.255351 0.145775 0.0139797 16711680
0.255384 0.146487 0.0140077 16711680
0.255329 0.147188 0.0139323 16711680
0.259836 0.0909877 0.0189934 16711680
0.259971 0.0917227 0.0191416 16711680
0.259793 0.0924037 0.018922 16711680
0.259911 0.0931355 0.0190502 16711680
0.259703 0.0938115 0.0187947 16711680
0.259584 0.0945027 0.0186436 16711680
0.259532 0.0952053 0.018571 16711680
0.25941 0.0958961 0.0184169 16711680
0.259428 0.0966106 0.0184274 16711680
0.25928 0.0972972 0.0182427 16711680
0.259529 0.0980499 0.0185255 16711680
0.25784 0.127607 0.0160896 16711680
0.25713 0.128218 0.0152428 16711680
0.256471 0.128837 0.0144559 16711680
0.25693 0.129609 0.0149858 16711680
0.255402 0.130112 0.013175 16711680
0.256778 0.131006 0.0147861 16711680
0.25594 0.131604 0.013788 16711680
0.25533 0.132232 0.013059 16711680
0.255763 0.132999 0.0135587 16711680
0.255594 0.133686 0.0133481 16711680
0.255101 0.134331 0.0127575 16711680
0.254732 0.134993 0.0123121 16711680
0.254326 0.13565 0.0118233 16711680
0.25423 0.136348 0.0116999 16711680
0.25393 0.137019 0.0113355 16711680
0.254145 0.137757 0.0115788 16711680
0.253917 0.138438 0.0112993 16711680
0.253935 0.13915 0.0113095 16711680
0.253699 0.13983 0.0110211 16711680
0.25406 0.140585 0.0114357 16711680
0.254241 0.141317 0.0116389 16711680
0.254666 0.142079 0.01213 16711680
0.254834 0.142808 0.0123166 16711680
0.254728 0.143504 0.012182 16711680
0.25506 0.144253 0.0125625 16711680
0.255239 0.144983 0.0127634 16711680
0.255822 0.145761 0.0134394 16711680
0.256014 0.146492 0.0136558 16711680
0.256186 0.14722 0.0138471 16711680
0.256083 0.147915 0.0137159 16711680
0.26022 0.0923779 0.0183295 16711680
0.260167 0.0930805 0.0182558 16711680
0.259356 0.0936538 0.0172893 16711680
0.260015 0.0944778 0.0180559 16711680
0.260078 0.0951999 0.0181191 16711680
0.259434 0.0958029 0.0173492 16711680
0.257494 0.129606 0.0145552 16711680
0.256669 0.130204 0.013572 16711680
0.257817 0.131067 0.014915 16711680
0.256084 0.131545 0.0128615 16711680
0.256432 0.133719 0.0132408 16711680
0.255534 0.134311 0.0121708 16711680
0.255378 0.135 0.0119765 16711680
0.25491 0.13565 0.0114136 16711680
0.254558 0.136314 0.010988 16711680
0.25414 0.136971 0.0104854 16711680
0.254699 0.137752 0.0111337 16711680
0.254731 0.138466 0.0111617 16711680
0.254413 0.139136 0.0107754 16711680
0.254115 0.139809 0.0104142 16711680
0.254353 0.140548 0.0106835 16711680
0.254733 0.141305 0.0111223 16711680
0.255514 0.142111 0.0120329 16711680
0.255971 0.142876 0.0125616 16711680
0.255533 0.143531 0.0120348 16711680
0.255679 0.144257 0.0121962 16711680
0.2556 0.144956 0.0120931 16711680
0.256186 0.145734 0.0127735 16711680
0.256392 0.146467 0.0130064 16711680
0.256753 0.147217 0.0134211 16711680
0.257025 0.147957 0.0137326 16711680
0.256813 0.148639 0.0134715 16711680
0.256334 0.149291 0.0128962 16711680
0.257552 0.0932474 0.0140629 16711680
0.256685 0.135803 0.0124115 16711680
0.256715 0.136516 0.0124362 16711680
0.256516 0.138618 0.0121703 16711680
0.254853 0.139117 0.0101961 16711680
0.25471 0.139809 0.0100169 16711680
0.254482 0.140491 0.00973749 16711680
0.254876 0.14125 0.0101922 16711680
0.256607 0.142173 0.0122255 16711680
0.257108 0.142943 0.012807 16711680
0.256666 0.143597 0.0122746 16711680
0.256579 0.144295 0.0121615 16711680
0.256219 0.144959 0.0117266 16711680
0.256608 0.145714 0.0121759 16711680
0.256706 0.146434 0.0122803 16711680
0.257284 0.147211 0.0129528 16711680
0.257648 0.147961 0.0133718 16711680
0.257633 0.148666 0.0133442 16711680
0.25753 0.149361 0.0132123 16711680
0.257247 0.150035 0.0128679 16711680
0.258278 0.143722 0.0130824 16711680
0.257609 0.144348 0.0122825 16711680
0.257055 0.144989 0.0116171 16711680
0.257138 0.145707 0.0117055 16711680
0.257259 0.14643 0.0118372 16711680
0.257761 0.147197 0.0124203 16711680
0.258127 0.147948 0.0128425 16711680
0.258296 0.148675 0.013033 16711680
0.258629 0.149421 0.0134157 16711680
0.258239 0.150082 0.0129449 16711680
0.257831 0.150742 0.0124519 16711680
0.258436 0.145085 0.0121527 16711680
0.257943 0.145733 0.0115589 16711680
0.257829 0.146428 0.0114146 16711680
0.258284 0.14719 0.0119423 16711680
0.258626 0.147937 0.0123373 16711680
0.258806 0.148666 0.0125394 16711680
0.259287 0.149429 0.0130985 16711680
0.259135 0.150118 0.0129089 16711680
0.259187 0.15083 0.0129603 16711680
0.258831 0.151496 0.0125283 16711680
0.259274 0.145823 0.0120368 16711680
0.259151 0.146515 0.0118815 16711680
0.258998 0.147204 0.0116903 16711680
0.25915 0.14793 0.0118598 16711680
0.259381 0.148664 0.0121232 16711680
0.259877 0.149429 0.0127007 16711680
0.25989 0.150137 0.012706 16711680
0.260203 0.15088 0.0130671 16711680
0.259706 0.151529 0.0124685 16711680
0.259458 0.152207 0.0121644 16711680
0.259938 0.147246 0.0117068 16711680
0.260006 0.147961 0.0117767 16711680
0.260004 0.148668 0.011765 16711680
0.26048 0.149431 0.0123186 16711680
0.260605 0.150152 0.0124573 16711680
0.260859 0.150887 0.0127474 16711680
0.260745 0.15158 0.0126024 16711680
0.260735 0.152285 0.0125809 16711680
0.260208 0.152931 0.0119468 16711680
0.261085 0.149432 0.0119385 16711680
0.261268 0.15016 0.0121464 16711680
0.261498 0.150893 0.012409 16711680
0.261673 0.151619 0.0126069 16711680
0.261718 0.15233 0.0126498 16711680
0.26122 0.152979 0.0120492 16711680
0.262108 0.150896 0.0120367 16711680
0.262587 0.151657 0.0125951 16711680
0.262561 0.152359 0.0125537 16711680
0.262514 0.153059 0.0124884 16711680
0.262256 0.153736 0.0121722 16711680
0.263417 0.151684 0.0124835 16711680
0.263428 0.152391 0.0124873 16711680
0.263775 0.153136 0.01289 16711680
0.263262 0.153783 0.0122701 16711680
0.263085 0.154468 0.0120507 16711680
0.264648 0.153168 0.0128312 16711680
0.264514 0.153858 0.0126621 16711680
0.264362 0.154545 0.0124724 16711680
0.263702 0.155177 0.0116775 16711680
0.265721 0.153928 0.0130018 16711680
0.265489 0.154606 0.0127157 16711680
0.26481 0.155234 0.011898 16711680
0.266422 0.154645 0.01273 16711680
0.266122 0.155315 0.0123638 16711680
0.265682 0.155971 0.011829 16711680
0.266673 0.156015 0.0119132 16711680
0.266865 0.156676 0.011035 16711680
