# .PCD v0.7 - Point Cloud Data file format
VERSION 0.7
FIELDS x y z rgb
SIZE 4 4 4 4
TYPE F F F F
COUNT 1 1 1 1
WIDTH 496
HEIGHT 1
VIEWPOINT 0 0 0 1 0 0 0
POINTS 496
DATA ascii
0.440864 0.00852117 0.02782 16711680
0.440605 0.00911623 0.0274601 16711680
0.440261 0.0096854 0.0269784 16711680
0.440435 0.0104126 0.0272311 16711680
0.440069 0.0109756 0.0267183 16711680
0.439891 0.011596 0.0264724 16711680
0.439766 0.0122325 0.0263014 16711680
0.441478 0.00787318 0.0275358 16711680
0.441302 0.00849307 0.0272914 16711680
0.440919 0.00905007 0.0267547 16711680
0.440556 0.00961372 0.0262465 16711680
0.440591 0.0102988 0.0263021 16711680
0.44046 0.0109334 0.0261223 16711680
0.440358 0.0115768 0.025984 16711680
0.440314 0.0122379 0.0259281 16711680
0.440311 0.0129112 0.0259295 16711680
0.44015 0.0135372 0.0257083 16711680
0.43974 0.0140882 0.0251317 16711680
0.442282 0.00660959 0.0275145 16711680
0.442268 0.0072794 0.0275011 16711680
0.441967 0.00786063 0.0270795 16711680
0.441353 0.00834626 0.0262138 16711680
0.441147 0.0089578 0.025928 16711680
0.441029 0.00959611 0.0257658 16711680
0.44095 0.0102467 0.0256606 16711680
0.440928 0.0109144 0.0256352 16711680
0.440792 0.0115479 0.0254495 16711680
0.440836 0.0122356 0.0255185 16711680
0.44111 0.0129924 0.0259132 16711680
0.440782 0.0135676 0.0254534 16711680
0.440092 0.0140347 0.0244799 16711680
0.439395 0.0145008 0.0234963 16711680
0.443548 0.00616375 0.0281554 16711680
0.443334 0.00677112 0.0278578 16711680
0.443181 0.00739756 0.0276465 16711680
0.442501 0.00786218 0.0266879 16711680
0.44179 0.00831783 0.0256833 16711680
0.441618 0.00893956 0.0254446 16711680
0.441576 0.00960159 0.0253925 16711680
0.44147 0.0102437 0.0252478 16711680
0.441433 0.0109069 0.0252013 16711680
0.441283 0.0115358 0.024994 16711680
0.441212 0.0121888 0.0248998 16711680
0.441506 0.0129521 0.0253252 16711680
0.441643 0.0136672 0.0255252 16711680
0.441304 0.0142394 0.0250506 16711680
0.440621 0.014709 0.0240858 16711680
0.440104 0.0152291 0.0233576 16711680
0.444217 0.00620732 0.0279568 16711680
0.44402 0.00681978 0.0276829 16711680
0.443877 0.00744939 0.0274869 16711680
0.443345 0.00795892 0.026736 16711680
0.443012 0.00853056 0.0262691 16711680
0.443075 0.00922397 0.0263654 16711680
0.443066 0.00989512 0.0263591 16711680
0.442999 0.0105484 0.0262699 16711680
0.442768 0.0111518 0.0259475 16711680
0.44277 0.0118264 0.0259579 16711680
0.442204 0.0123287 0.0251584 16711680
0.442509 0.0130948 0.0255991 16711680
0.442598 0.0137953 0.0257322 16711680
0.442305 0.0143808 0.0253217 16711680
0.441673 0.0148651 0.0244288 16711680
0.440768 0.0152689 0.0231482 16711680
0.440103 0.0157454 0.0222086 16711680
0.444574 0.00615403 0.0273144 16711680
0.444948 0.00694367 0.027854 16711680
0.444528 0.00748691 0.0272615 16711680
0.444035 0.00800839 0.0265659 16711680
0.443973 0.00866321 0.0264847 16711680
0.444019 0.00935102 0.0265567 16711680
0.444171 0.0100712 0.02678 16711680
0.444058 0.0107099 0.0266253 16711680
0.444124 0.0114034 0.0267262 16711680
0.443947 0.0120229 0.026481 16711680
0.444013 0.0127161 0.0265816 16711680
0.443802 0.0133254 0.0262879 16711680
0.443692 0.0139653 0.0261378 16711680
0.442922 0.0144072 0.0250486 16711680
0.442329 0.0149028 0.0242095 16711680
0.441373 0.0152912 0.0228555 16711680
0.440925 0.0158321 0.0222234 16711680
0.445623 0.00631574 0.0276575 16711680
0.445636 0.00699309 0.0276829 16711680
0.445247 0.00754589 0.027135 16711680
0.444641 0.00803226 0.026278 16711680
0.444553 0.00867873 0.0261583 16711680
0.444946 0.00947329 0.0267264 16711680
0.44496 0.0101508 0.0267527 16711680
0.444765 0.0107645 0.026482 16711680
0.444774 0.0114402 0.0265006 16711680
0.444596 0.0120593 0.0262537 16711680
0.444727 0.012772 0.0264468 16711680
0.444512 0.0133801 0.0261481 16711680
0.444297 0.0139882 0.0258479 16711680
0.443483 0.0144165 0.0246943 16711680
0.442781 0.0148796 0.0237005 16711680
0.441967 0.0153102 0.0225471 16711680
0.441237 0.0157669 0.0215129 16711680
0.442229 0.0180852 0.022947 16711680
0.446196 0.0063296 0.0273231 16711680
0.446172 0.00699541 0.0272957 16711680
0.445872 0.00757554 0.0268736 16711680
0.445187 0.0080373 0.0259027 16711680
0.445355 0.00876278 0.0261494 16711680
0.445927 0.0096122 0.0269734 16711680
0.445679 0.0102091 0.0266265 16711680
0.445504 0.0108287 0.0263836 16711680
0.445339 0.0114515 0.0261551 16711680
0.445068 0.012042 0.0257746 16711680
0.445422 0.0128224 0.026286 16711680
0.44518 0.013422 0.0259475 16711680
0.444881 0.0140047 0.0255277 16711680
0.444162 0.0144614 0.024509 16711680
0.443319 0.014882 0.0233134 16711680
0.44253 0.0153199 0.0221945 16711680
0.441556 0.0157036 0.0208111 16711680
0.44323 0.016877 0.023206 16711680
0.442974 0.0174748 0.0228479 16711680
0.442072 0.0178817 0.0215679 16711680
0.442673 0.00371471 0.0211236 16711680
0.442491 0.00433457 0.0208706 16711680
0.446683 0.00631639 0.0268644 16711680
0.446771 0.00701728 0.0269983 16711680
0.446532 0.00761625 0.0266632 16711680
0.445817 0.00806859 0.0256492 16711680
0.446425 0.00892976 0.0265251 16711680
0.446573 0.00964829 0.0267433 16711680
0.446332 0.0102472 0.0264058 16711680
0.446239 0.0108916 0.0262797 16711680
0.445906 0.011463 0.0258113 16711680
0.445641 0.0120553 0.0254393 16711680
0.446051 0.0128529 0.0260317 16711680
0.445639 0.0134009 0.0254499 16711680
0.445403 0.0140026 0.0251198 16711680
0.444747 0.0144782 0.0241905 16711680
0.44389 0.0148943 0.0229734 16711680
0.443195 0.0153602 0.0219877 16711680
0.442239 0.015749 0.0206288 16711680
0.44346 0.0167877 0.022379 16711680
0.44323 0.0173934 0.0220577 16711680
0.442611 0.0178843 0.0211816 16711680
0.441457 0.0182176 0.0195396 16711680
0.439987 0.0184597 0.0174474 16711680
0.444111 0.00332254 0.0220131 16711680
0.443139 0.00369427 0.0206304 16711680
0.442713 0.00423789 0.0200279 16711680
0.446538 0.00610662 0.0255039 16711680
0.447331 0.00702685 0.0266443 16711680
0.447102 0.00762907 0.0263245 16711680
0.446308 0.00805691 0.0251969 16711680
0.447064 0.00896367 0.0262845 16711680
0.447111 0.00965098 0.026358 16711680
0.446954 0.0102758 0.0261413 16711680
0.446886 0.0109279 0.0260513 16711680
0.446539 0.0114946 0.0255613 16711680
0.446373 0.0121173 0.0253321 16711680
0.446569 0.0128497 0.0256191 16711680
0.446146 0.0133944 0.0250213 16711680
0.445769 0.0139535 0.0244896 16711680
0.445218 0.0144605 0.0237083 16711680
0.444428 0.0148966 0.0225857 16711680
0.443741 0.0153648 0.0216109 16711680
0.443516 0.0159721 0.0212966 16711680
0.444044 0.0168038 0.0220577 16711680
0.443712 0.017379 0.0215898 16711680
0.443118 0.017877 0.020748 16711680
0.441938 0.0182027 0.0190682 16711680
0.440767 0.0185326 0.0174009 16711680
0.444641 0.00332245 0.021613 16711680
0.443632 0.00368246 0.0201763 16711680
0.443234 0.00423488 0.019614 16711680
0.444317 0.00524947 0.0211709 16711680
0.447796 0.00700724 0.0261562 16711680
0.447588 0.00761575 0.025865 16711680
0.446757 0.00803202 0.0246836 16711680
0.447545 0.00894898 0.0258185 16711680
0.447604 0.00964019 0.0259101 16711680
0.447439 0.0102624 0.0256808 16711680
0.447369 0.0109138 0.0255876 16711680
0.447041 0.0114865 0.0251253 16711680
0.447089 0.0121742 0.0252016 16711680
0.447097 0.0128495 0.02522 16711680
0.446609 0.0133744 0.024529 16711680
0.446023 0.0138704 0.0236979 16711680
0.445632 0.0144256 0.0231445 16711680
0.444715 0.0148238 0.0218406 16711680
0.4442 0.0153434 0.0211101 16711680
0.444187 0.0160141 0.0210991 16711680
0.444269 0.0167129 0.0212233 16711680
0.44401 0.0173102 0.0208602 16711680
0.443435 0.0178136 0.0200431 16711680
0.442439 0.0181936 0.0186251 16711680
0.441463 0.0185812 0.0172365 16711680
0.445182 0.00332564 0.021228 16711680
0.444239 0.0037061 0.0198843 16711680
0.443786 0.00424105 0.0192422 16711680
0.443932 0.00496376 0.0194592 16711680
0.447365 0.00670868 0.0243838 16711680
0.447988 0.00757581 0.0252827 16711680
0.447212 0.00800908 0.0241791 16711680
0.448007 0.00892845 0.0253254 16711680
0.448101 0.0096305 0.0254673 16711680
0.447866 0.0102312 0.0251377 16711680
0.447695 0.0108518 0.0249001 16711680
0.447389 0.0114314 0.0244693 16711680
0.447665 0.0121886 0.0248712 16711680
0.447581 0.0128359 0.0247583 16711680
0.447013 0.0133366 0.0239525 16711680
0.446461 0.0138426 0.0231686 16711680
0.446043 0.0143899 0.0225766 16711680
0.445209 0.0148127 0.0213892 16711680
0.444764 0.0153534 0.0207587 16711680
0.444834 0.016049 0.0208673 16711680
0.444691 0.0166804 0.0206686 16711680
0.444471 0.0172894 0.0203614 16711680
0.443788 0.017761 0.0193903 16711680
0.442956 0.0181895 0.0182059 16711680
0.445698 0.0033209 0.0208067 16711680
0.444812 0.00371921 0.0195442 16711680
0.444384 0.00426203 0.0189382 16711680
0.444357 0.00493068 0.0189071 16711680
0.445542 0.00597647 0.0206134 16711680
0.448071 0.00743756 0.0242465 16711680
0.447503 0.00793526 0.023439 16711680
0.44817 0.00881544 0.0244029 16711680
0.448431 0.00956932 0.0247847 16711680
0.448268 0.0101922 0.0245579 16711680
0.447862 0.0107408 0.0239829 16711680
0.447661 0.0113528 0.0237026 16711680
0.448051 0.012145 0.0242686 16711680
0.448064 0.0128219 0.0242945 16711680
0.44744 0.0133055 0.0234081 16711680
0.446812 0.0137886 0.022514 16711680
0.446268 0.0142982 0.0217423 16711680
0.445661 0.0147892 0.0208784 16711680
0.445235 0.0153358 0.020276 16711680
0.445224 0.0160068 0.0202663 16711680
0.445148 0.0166585 0.0201647 16711680
0.444896 0.0172579 0.0198109 16711680
0.444219 0.0177314 0.0188483 16711680
0.443458 0.0181809 0.0177649 16711680
0.446998 0.00288746 0.021504 16711680
0.4462 0.00331205 0.0203665 16711680
0.445418 0.00374278 0.0192521 16711680
0.445047 0.00430316 0.0187263 16711680
0.444906 0.0049361 0.0185319 16711680
0.445124 0.0056808 0.0188519 16711680
0.447061 0.00695938 0.0216396 16711680
0.447075 0.00763872 0.0216675 16711680
0.447478 0.00843802 0.0222528 16711680
0.448183 0.00932965 0.0232713 16711680
0.448307 0.0100416 0.0234573 16711680
0.447882 0.0105848 0.022855 16711680
0.447667 0.0111927 0.0225537 16711680
0.447926 0.0119456 0.022933 16711680
0.448412 0.0127668 0.0236371 16711680
0.447647 0.0132076 0.0225472 16711680
0.446995 0.0136838 0.0216196 16711680
0.446837 0.01431 0.0214002 16711680
0.446127 0.0147699 0.020388 16711680
0.445823 0.0153531 0.0199599 16711680
0.445757 0.0160075 0.0198712 16711680
0.445603 0.0166362 0.0196587 16711680
0.445236 0.0172013 0.0191394 16711680
0.444631 0.017696 0.0182781 16711680
0.443974 0.0181761 0.0173421 16711680
0.443107 0.0185953 0.0161059 16711680
0.441706 0.0188582 0.0141025 16711680
0.446749 0.00331771 0.0199931 16711680
0.44599 0.00375563 0.0189108 16711680
0.44576 0.00436005 0.0185871 16711680
0.445518 0.00496122 0.0182472 16711680
0.445356 0.00558764 0.0180225 16711680
0.446623 0.00665849 0.0198506 16711680
0.446746 0.00737238 0.0200349 16711680
0.44734 0.00823167 0.0208958 16711680
0.44829 0.00919965 0.0222679 16711680
0.448223 0.00985304 0.0221789 16711680
0.448145 0.0105029 0.0220736 16711680
0.447834 0.0110816 0.0216342 16711680
0.44791 0.0117789 0.0217508 16711680
0.448518 0.0126382 0.0226324 16711680
0.447987 0.0131501 0.0218769 16711680
0.447319 0.0136214 0.0209252 16711680
0.447049 0.0142138 0.0205443 16711680
0.446696 0.0147818 0.0200458 16711680
0.446317 0.015342 0.0195078 16711680
0.446256 0.0159984 0.0194284 16711680
0.446074 0.0166182 0.0191735 16711680
0.445494 0.0171198 0.0183479 16711680
0.445069 0.0176685 0.0177461 16711680
0.444453 0.0181606 0.0168675 16711680
0.443698 0.0186127 0.0157907 16711680
0.442705 0.0189959 0.0143727 16711680
0.44733 0.00333378 0.0196666 16711680
0.446727 0.00382036 0.0188071 16711680
0.446492 0.00442308 0.0184764 16711680
0.446146 0.00499165 0.0179871 16711680
0.445906 0.0055933 0.0176487 16711680
0.446369 0.00641418 0.018322 16711680
0.446884 0.00725043 0.0190705 16711680
0.448027 0.00827995 0.0207213 16711680
0.448781 0.00918776 0.0218141 16711680
0.448674 0.00982893 0.021668 16711680
0.448625 0.0104879 0.0216049 16711680
0.448336 0.0110732 0.0211961 16711680
0.447938 0.0116257 0.0206316 16711680
0.448326 0.0124183 0.021197 16711680
0.448269 0.0130749 0.0211229 16711680
0.447717 0.0135815 0.0203372 16711680
0.447422 0.0141664 0.0199205 16711680
0.447281 0.0147982 0.0197253 16711680
0.446895 0.0153565 0.0191783 16711680
0.44683 0.0160113 0.0190915 16711680
0.446538 0.0165986 0.0186803 16711680
0.445874 0.017075 0.017733 16711680
0.445463 0.0176276 0.0171494 16711680
0.444957 0.0181527 0.0164298 16711680
0.44423 0.018613 0.0153923 16711680
0.443729 0.019141 0.0146794 16711680
0.448002 0.00337818 0.0194697 16711680
0.447449 0.00388038 0.0186818 16711680
0.447216 0.00448382 0.018355 16711680
0.446833 0.00504038 0.0178114 16711680
0.446621 0.00565064 0.0175129 16711680
0.446683 0.00634691 0.0176113 16711680
0.446943 0.00710392 0.017992 16711680
0.447151 0.00784469 0.0182998 16711680
0.449192 0.00915098 0.0212443 16711680
0.449068 0.00978717 0.0210745 16711680
0.449152 0.0104872 0.021203 16711680
0.448864 0.0110728 0.0207958 16711680
0.448369 0.0115955 0.0200906 16711680
0.448656 0.0123574 0.0205113 16711680
0.448686 0.0130408 0.0205629 16711680
0.448237 0.0135783 0.0199237 16711680
0.447963 0.0141697 0.0195372 16711680
0.447899 0.0148248 0.0194536 16711680
0.44752 0.015385 0.0189159 16711680
0.44735 0.0160083 0.0186785 16711680
0.446931 0.0165571 0.0180821 16711680
0.446318 0.017049 0.0172087 16711680
0.445985 0.017625 0.0167375 16711680
0.445407 0.0181284 0.0159125 16711680
0.444718 0.0185998 0.0149285 16711680
0.444494 0.0192098 0.0146145 16711680
0.44878 0.00345641 0.0194274 16711680
0.448387 0.00400853 0.0188687 16711680
0.448015 0.00456774 0.0183403 16711680
0.447508 0.00508529 0.0176181 16711680
0.447352 0.00571319 0.0174016 16711680
0.447193 0.00634006 0.0171798 16711680
0.447378 0.00707412 0.0174541 16711680
0.446804 0.00757253 0.0166352 16711680
0.447886 0.00858364 0.0182016 16711680
0.449227 0.00967294 0.0201421 16711680
0.44947 0.010422 0.0204993 16711680
0.448978 0.0109452 0.0197979 16711680
0.44803 0.0113298 0.0184407 16711680
0.449689 0.012511 0.0208379 16711680
0.449353 0.0130826 0.0203627 16711680
0.448802 0.0135891 0.0195764 16711680
0.448646 0.0142159 0.0193586 16711680
0.448437 0.014827 0.0190655 16711680
0.448021 0.0153762 0.0184751 16711680
0.447841 0.0159964 0.0182223 16711680
0.447425 0.0165462 0.0176306 16711680
0.446808 0.0170367 0.0167503 16711680
0.446285 0.017556 0.0160048 16711680
0.445636 0.0180385 0.0150775 16711680
0.445092 0.018553 0.0143013 16711680
0.445223 0.019268 0.0144986 16711680
0.451132 0.00335687 0.0216463 16711680
0.449488 0.00351235 0.0192834 16711680
0.449212 0.00410143 0.0188946 16711680
0.448843 0.00466111 0.0183694 16711680
0.448411 0.00520188 0.0177547 16711680
0.448289 0.00583991 0.0175866 16711680
0.447845 0.00637797 0.0169553 16711680
0.447894 0.00706968 0.0170337 16711680
0.447327 0.00757 0.0162234 16711680
0.446967 0.00813526 0.0157119 16711680
0.448135 0.00917259 0.0174048 16711680
0.449116 0.0101503 0.0188274 16711680
0.448835 0.0107389 0.0184301 16711680
0.448309 0.0112529 0.0176793 16711680
0.450509 0.0125999 0.0208597 16711680
0.449902 0.0130885 0.0199921 16711680
0.44938 0.0136037 0.0192469 16711680
0.449226 0.0142312 0.0190328 16711680
0.448947 0.0148211 0.0186386 16711680
0.448462 0.0153493 0.0179474 16711680
0.44836 0.0159931 0.0178078 16711680
0.447984 0.016555 0.0172738 16711680
0.447271 0.0170165 0.0162538 16711680
0.446577 0.0174847 0.0152607 16711680
0.445711 0.0179029 0.0140201 16711680
0.445613 0.0185498 0.013886 16711680
0.449881 0.00414479 0.0186939 16711680
0.449606 0.00473434 0.018306 16711680
0.449456 0.00536293 0.0180967 16711680
0.449027 0.00590488 0.0174867 16711680
0.44863 0.00645694 0.0169208 16711680
0.448621 0.00713044 0.016916 16711680
0.448225 0.00768381 0.0163529 16711680
0.448565 0.00846541 0.0168514 16711680
0.449353 0.00938481 0.0179975 16711680
0.449901 0.0102287 0.018796 16711680
0.44905 0.0106421 0.017576 16711680
0.450401 0.0117309 0.0195328 16711680
0.451007 0.0125904 0.0204164 16711680
0.45031 0.0130514 0.0194179 16711680
0.449864 0.0135897 0.0187818 16711680
0.449704 0.0142153 0.0185586 16711680
0.449476 0.0148208 0.0182385 16711680
0.449004 0.0153527 0.0175648 16711680
0.448921 0.0160022 0.017453 16711680
0.448464 0.0165396 0.0168011 16711680
0.447662 0.0169746 0.0156523 16711680
0.446928 0.0174309 0.014601 16711680
0.446184 0.0178852 0.0135343 16711680
0.445428 0.0183372 0.012452 16711680
0.447348 0.0195819 0.0152302 16711680
0.446156 0.0199052 0.0135175 16711680
0.450348 0.00412512 0.0182046 16711680
0.45024 0.00476682 0.018056 16711680
0.450164 0.00541872 0.0179541 16711680
0.449832 0.00599054 0.0174825 16711680
0.449759 0.0066438 0.0173861 16711680
0.449525 0.00724652 0.017055 16711680
0.44948 0.00790864 0.0169991 16711680
0.449637 0.00863305 0.0172338 16711680
0.450013 0.00942478 0.0177854 16711680
0.450052 0.0101119 0.0178494 16711680
0.4504 0.0108937 0.0183597 16711680
0.450967 0.0117423 0.0191879 16711680
0.451319 0.0125239 0.0197039 16711680
0.450605 0.0129798 0.0186802 16711680
0.450313 0.0135653 0.0182674 16711680
0.450173 0.0141969 0.0180722 16711680
0.450027 0.014827 0.0178695 16711680
0.449509 0.0153452 0.0171301 16711680
0.449298 0.0159562 0.0168329 16711680
0.448827 0.0164892 0.0161595 16711680
0.448055 0.0169331 0.0150526 16711680
0.44713 0.0173324 0.0137248 16711680
0.446562 0.0178393 0.0129119 16711680
0.445254 0.0181274 0.011031 16711680
0.448113 0.0196512 0.0151689 16711680
0.447765 0.0202235 0.0146748 16711680
0.450187 0.00390702 0.0168053 16711680
0.450506 0.00468373 0.0172749 16711680
0.450709 0.00542346 0.0175767 16711680
0.450519 0.00603953 0.0173095 16711680
0.450462 0.00669768 0.0172362 16711680
0.450239 0.00730386 0.0169219 16711680
0.450663 0.00811112 0.0175421 16711680
0.450345 0.00868791 0.0170907 16711680
0.45067 0.00946391 0.0175693 16711680
0.450869 0.0102002 0.0178647 16711680
0.450996 0.0109141 0.0180571 16711680
0.45138 0.0117064 0.01862 16711680
0.451435 0.0123974 0.0187078 16711680
0.451112 0.012973 0.0182495 16711680
0.450828 0.0135607 0.0178467 16711680
0.450683 0.0141909 0.0176448 16711680
0.450537 0.014821 0.0174421 16711680
0.449919 0.0153087 0.0165569 16711680
0.44957 0.0158782 0.01606 16711680
0.449189 0.0164388 0.0155178 16711680
0.448462 0.0168959 0.014474 16711680
0.447412 0.0172578 0.0129635 16711680
0.446656 0.017709 0.0118797 16711680
0.445709 0.0181044 0.0105186 16711680
0.448634 0.0196482 0.014755 16711680
0.449136 0.0040853 0.0141243 16711680
0.450097 0.00506458 0.0155236 16711680
0.450132 0.00575227 0.0155829 16711680
0.44968 0.00628754 0.014937 16711680
0.44956 0.00692675 0.0147711 16711680
0.449611 0.00761929 0.0148531 16711680
0.449786 0.00835013 0.0151147 16711680
0.450286 0.00918129 0.0158476 16711680
0.450575 0.00994617 0.016274 16711680
0.450858 0.0107086 0.0166913 16711680
0.450772 0.0113575 0.0165758 16711680
0.451055 0.012119 0.016993 16711680
0.450886 0.0127423 0.0167575 16711680
0.451018 0.0134571 0.0169561 16711680
0.450502 0.013975 0.0162171 16711680
0.450182 0.0145528 0.0157619 16711680
0.44974 0.0150943 0.0151305 16711680
0.449137 0.0155881 0.014267 16711680
0.448606 0.016104 0.0135064 16711680
0.448038 0.0166098 0.0126925 16711680
