# .PCD v0.7 - Point Cloud Data file format
VERSION 0.7
FIELDS x y z rgb
SIZE 4 4 4 4
TYPE F F F F
COUNT 1 1 1 1
WIDTH 1236
HEIGHT 1
VIEWPOINT 0 0 0 1 0 0 0
POINTS 1236
DATA ascii
0.245444 -0.0714926 0.0202407 16711680
0.245311 -0.0707974 0.0200726 16711680
0.245274 -0.0700706 0.020017 16711680
0.245136 -0.0693766 0.0198442 16711680
0.245111 -0.0686461 0.0198023 16711680
0.245 -0.0679434 0.0196606 16711680
0.24501 -0.0672019 0.0196588 16711680
0.244918 -0.0664932 0.0195385 16711680
0.244929 -0.0657513 0.0195388 16711680
0.244875 -0.0650305 0.0194626 16711680
0.244874 -0.0642929 0.0194483 16711680
0.244862 -0.0635586 0.0194219 16711680
0.244824 -0.0628329 0.0193646 16711680
0.244766 -0.0621134 0.0192845 16711680
0.244653 -0.0614116 0.0191398 16711680
0.244543 -0.0607086 0.0189993 16711680
0.244449 -0.0600003 0.0188781 16711680
0.244347 -0.0592951 0.0187459 16711680
0.244338 -0.0585602 0.0187229 16711680
0.244432 -0.0577936 0.0188185 16711680
0.244437 -0.0570548 0.0188111 16711680
0.244471 -0.0563071 0.0188378 16711680
0.244433 -0.0555819 0.0187809 16711680
0.247023 -0.0770738 0.0210677 16711680
0.246737 -0.0764297 0.0207224 16711680
0.246659 -0.0757164 0.0206188 16711680
0.246452 -0.0750457 0.0203656 16711680
0.246397 -0.074325 0.0202881 16711680
0.246203 -0.0736498 0.0200496 16711680
0.246185 -0.0729167 0.0200161 16711680
0.246011 -0.0722348 0.0198009 16711680
0.245982 -0.0715054 0.0197543 16711680
0.245851 -0.0708092 0.0195898 16711680
0.245826 -0.0700787 0.0195475 16711680
0.245685 -0.0693858 0.0193707 16711680
0.245683 -0.068648 0.0193553 16711680
0.245591 -0.0679391 0.0192357 16711680
0.245565 -0.0672092 0.019192 16711680
0.24547 -0.0665013 0.0190688 16711680
0.245502 -0.0657528 0.019093 16711680
0.245459 -0.0650282 0.0190309 16711680
0.245479 -0.0642838 0.0190411 16711680
0.245479 -0.0635462 0.0190272 16711680
0.245431 -0.0628234 0.0189595 16711680
0.245358 -0.062109 0.0188611 16711680
0.245174 -0.0614294 0.0186348 16711680
0.24515 -0.0606992 0.0185941 16711680
0.245038 -0.059997 0.0184507 16711680
0.244942 -0.0592896 0.0183262 16711680
0.244973 -0.0585422 0.0183499 16711680
0.245081 -0.0577711 0.0184623 16711680
0.245049 -0.0570439 0.0184122 16711680
0.245173 -0.0562682 0.0185435 16711680
0.245122 -0.0555473 0.0184709 16711680
0.248035 -0.0791461 0.021171 16711680
0.247989 -0.0784225 0.0211046 16711680
0.247827 -0.0777373 0.0209041 16711680
0.247546 -0.0770916 0.0205646 16711680
0.247288 -0.0764383 0.020251 16711680
0.247205 -0.0757267 0.020142 16711680
0.247046 -0.07504 0.0199448 16711680
0.246946 -0.0743342 0.0198147 16711680
0.246771 -0.0736528 0.0195984 16711680
0.246731 -0.0729269 0.0195394 16711680
0.246589 -0.0722344 0.0193619 16711680
0.246547 -0.0715096 0.019299 16711680
0.246441 -0.0708053 0.0191631 16711680
0.246395 -0.0700815 0.0190971 16711680
0.246264 -0.0693853 0.0189321 16711680
0.246282 -0.0686408 0.0189403 16711680
0.246222 -0.0679218 0.0188577 16711680
0.246192 -0.0671932 0.0188096 16711680
0.24612 -0.0664779 0.0187134 16711680
0.246113 -0.0657421 0.0186918 16711680
0.246115 -0.0650033 0.0186815 16711680
0.246086 -0.0642744 0.0186354 16711680
0.246064 -0.0635436 0.0185963 16711680
0.246013 -0.0628219 0.018525 16711680
0.246023 -0.0620812 0.018523 16711680
0.245887 -0.0613865 0.0183524 16711680
0.245878 -0.0606516 0.0183296 16711680
0.245613 -0.0599979 0.0180074 16711680
0.245496 -0.0592971 0.0178589 16711680
0.245577 -0.0585339 0.017941 16711680
0.245789 -0.0577303 0.0181743 16711680
0.245687 -0.0570252 0.0180424 16711680
0.245848 -0.056238 0.018217 16711680
0.249456 -0.0810796 0.0217513 16711680
0.249461 -0.0803391 0.021745 16711680
0.248747 -0.0798397 0.020901 16711680
0.248467 -0.0791942 0.0205625 16711680
0.248508 -0.0784415 0.0205975 16711680
0.248457 -0.0777197 0.0205251 16711680
0.248176 -0.077074 0.0201858 16711680
0.247898 -0.0764274 0.0198487 16711680
0.247836 -0.0757089 0.0197639 16711680
0.247597 -0.0750488 0.0194731 16711680
0.247544 -0.0743273 0.0193987 16711680
0.247356 -0.0736501 0.0191674 16711680
0.247333 -0.0729187 0.019128 16711680
0.247193 -0.0722257 0.018952 16711680
0.247151 -0.0715007 0.01889 16711680
0.247019 -0.0708048 0.0187243 16711680
0.247028 -0.0700633 0.0187218 16711680
0.246907 -0.069364 0.0185678 16711680
0.24692 -0.0686213 0.0185703 16711680
0.246811 -0.0679181 0.0184306 16711680
0.246823 -0.067176 0.0184313 16711680
0.246879 -0.0664196 0.0184845 16711680
0.246792 -0.0657094 0.0183703 16711680
0.246956 -0.0649188 0.0185484 16711680
0.24675 -0.064247 0.0182954 16711680
0.246712 -0.063521 0.0182391 16711680
0.24665 -0.0628031 0.0181538 16711680
0.246822 -0.0620109 0.0183409 16711680
0.246649 -0.0613283 0.0181267 16711680
0.246728 -0.0605656 0.0182067 16711680
0.246364 -0.0599432 0.0177698 16711680
0.246528 -0.0591542 0.0179478 16711680
0.246331 -0.0584788 0.017706 16711680
0.246581 -0.0576631 0.017985 16711680
0.246504 -0.0569504 0.0178819 16711680
0.249986 -0.0825727 0.0212835 16711680
0.249732 -0.0819195 0.0209744 16711680
0.249752 -0.0811737 0.0209854 16711680
0.250336 -0.0802388 0.0216523 16711680
0.24969 -0.0797167 0.0208877 16711680
0.249207 -0.0791394 0.0203128 16711680
0.24905 -0.0784532 0.020116 16711680
0.249077 -0.0777052 0.0201349 16711680
0.2488 -0.0770586 0.0197992 16711680
0.248626 -0.0763772 0.0195847 16711680
0.248469 -0.0756901 0.0193894 16711680
0.248204 -0.0750389 0.0190673 16711680
0.248229 -0.0742919 0.0190834 16711680
0.24806 -0.0736085 0.0188742 16711680
0.247985 -0.0728944 0.0187736 16711680
0.24783 -0.0722061 0.0185814 16711680
0.247869 -0.0714547 0.0186138 16711680
0.247782 -0.0707445 0.0184993 16711680
0.247723 -0.070025 0.0184186 16711680
0.247661 -0.0693068 0.0183331 16711680
0.247626 -0.0685795 0.0182803 16711680
0.247575 -0.0678577 0.018208 16711680
0.247547 -0.0671285 0.0181628 16711680
0.247739 -0.0663288 0.0183729 16711680
0.247577 -0.0656429 0.0181717 16711680
0.247669 -0.0648753 0.0182669 16711680
0.247461 -0.0642041 0.0180116 16711680
0.247635 -0.063411 0.0182011 16711680
0.24737 -0.0627576 0.0178804 16711680
0.247687 -0.0619195 0.0182369 16711680
0.247424 -0.0612656 0.0179174 16711680
0.247572 -0.0604815 0.0180771 16711680
0.24733 -0.0598206 0.017783 16711680
0.247484 -0.0590349 0.0179503 16711680
0.247169 -0.0583968 0.0175709 16711680
0.247433 -0.0575773 0.0178646 16711680
0.251767 -0.0836421 0.022272 16711680
0.251202 -0.0830953 0.0216004 16711680
0.250482 -0.0825998 0.0207492 16711680
0.250152 -0.0819722 0.0203518 16711680
0.250008 -0.0812816 0.0201709 16711680
0.25084 -0.0802629 0.0211283 16711680
0.25107 -0.0794476 0.0213832 16711680
0.250336 -0.0789547 0.0205157 16711680
0.249595 -0.0784636 0.019639 16711680
0.249577 -0.0777308 0.0196049 16711680
0.24944 -0.0770373 0.0194331 16711680
0.249328 -0.0763357 0.0192896 16711680
0.249118 -0.0756662 0.0190328 16711680
0.24896 -0.0749799 0.0188351 16711680
0.248906 -0.0742587 0.01876 16711680
0.248767 -0.0735656 0.0185856 16711680
0.248773 -0.0728251 0.018579 16711680
0.248633 -0.0721321 0.0184042 16711680
0.248598 -0.071405 0.0183507 16711680
0.248657 -0.0706474 0.0184062 16711680
0.248461 -0.0699728 0.0181653 16711680
0.248644 -0.0691751 0.0183657 16711680
0.248443 -0.0685021 0.0181185 16711680
0.24865 -0.0676968 0.0183483 16711680
0.248506 -0.0670056 0.0181668 16711680
0.248681 -0.0662111 0.0183592 16711680
0.248461 -0.0655441 0.0180904 16711680
0.248659 -0.0647433 0.0183076 16711680
0.248223 -0.064145 0.0177873 16711680
0.248478 -0.063326 0.0180721 16711680
0.24827 -0.0626552 0.0178161 16711680
0.248533 -0.0618339 0.0181113 16711680
0.24832 -0.0611644 0.0178503 16711680
0.248391 -0.060405 0.01792 16711680
0.248209 -0.0597255 0.0176952 16711680
0.248349 -0.0589444 0.017846 16711680
0.248234 -0.0582439 0.017699 16711680
0.248378 -0.0574621 0.0178543 16711680
0.253667 -0.0846675 0.0234017 16711680
0.252971 -0.0841667 0.0225772 16711680
0.252409 -0.0836195 0.0219094 16711680
0.251721 -0.0831144 0.021094 16711680
0.251099 -0.0825861 0.0203557 16711680
0.250796 -0.0819492 0.0199904 16711680
0.250581 -0.0812825 0.0197269 16711680
0.251018 -0.0803965 0.0202242 16711680
0.252224 -0.0792533 0.0216186 16711680
0.251641 -0.0787108 0.0209258 16711680
0.250292 -0.0784235 0.0193385 16711680
0.250072 -0.0777579 0.0190694 16711680
0.250003 -0.0770417 0.018977 16711680
0.250049 -0.0762879 0.0190175 16711680
0.249906 -0.0755964 0.0188384 16711680
0.249768 -0.0749033 0.0186648 16711680
0.24966 -0.0742005 0.0185255 16711680
0.249632 -0.0734711 0.0184803 16711680
0.24949 -0.0727791 0.0183024 16711680
0.249625 -0.0719964 0.0184472 16711680
0.249424 -0.0713237 0.0182004 16711680
0.249574 -0.0705364 0.018363 16711680
0.249328 -0.0698785 0.0180629 16711680
0.24956 -0.0690648 0.018322 16711680
0.249309 -0.0684082 0.0180167 16711680
0.249573 -0.0675851 0.0183115 16711680
0.249353 -0.0669183 0.0180427 16711680
0.249445 -0.066151 0.0181373 16711680
0.249234 -0.0654813 0.0178787 16711680
0.249441 -0.0646773 0.0181079 16711680
0.249313 -0.0639812 0.0179452 16711680
0.249386 -0.0632205 0.0180182 16711680
0.249392 -0.0624814 0.0180134 16711680
0.249317 -0.0617682 0.0179133 16711680
0.249259 -0.0610496 0.0178334 16711680
0.249241 -0.0603186 0.0177994 16711680
0.249346 -0.0595486 0.0179098 16711680
0.249173 -0.0588667 0.0176948 16711680
0.249355 -0.058073 0.0178947 16711680
0.255532 -0.0849639 0.0244813 16711680
0.254942 -0.0844285 0.0237795 16711680
0.254089 -0.0839819 0.0227709 16711680
0.253318 -0.083506 0.021859 16711680
0.252492 -0.0830481 0.020882 16711680
0.25178 -0.0825504 0.0200384 16711680
0.251583 -0.0818782 0.0197952 16711680
0.251239 -0.0812552 0.019381 16711680
0.251444 -0.0804472 0.0196079 16711680
0.252876 -0.0792277 0.0212677 16711680
0.252754 -0.0785311 0.0211124 16711680
0.251873 -0.0780877 0.0200714 16711680
0.250704 -0.0777393 0.0186939 16711680
0.25062 -0.0770284 0.0185833 16711680
0.250769 -0.0762401 0.0187449 16711680
0.250546 -0.0755756 0.0184711 16711680
0.250574 -0.0748275 0.0184921 16711680
0.250463 -0.0741257 0.0183498 16711680
0.250481 -0.0733814 0.0183581 16711680
0.250312 -0.0726984 0.0181487 16711680
0.25044 -0.0719182 0.0182853 16711680
0.250242 -0.0712447 0.0180421 16711680
0.250394 -0.0704571 0.0182068 16711680
0.250172 -0.0697912 0.0179358 16711680
0.250313 -0.0690077 0.0180874 16711680
0.25024 -0.0682935 0.0179896 16711680
0.250288 -0.0675402 0.0180339 16711680
0.250203 -0.0668301 0.0179219 16711680
0.250252 -0.0660771 0.0179658 16711680
0.250125 -0.0653804 0.0178055 16711680
0.250171 -0.0646284 0.0178466 16711680
0.250206 -0.06388 0.017875 16711680
0.250155 -0.063159 0.017804 16711680
0.250126 -0.0624312 0.0177578 16711680
0.250096 -0.061704 0.0177097 16711680
0.250132 -0.0609559 0.0177391 16711680
0.250006 -0.0602592 0.0175794 16711680
0.250151 -0.0594767 0.0177367 16711680
0.249951 -0.0588032 0.0174911 16711680
0.250143 -0.0580066 0.0177023 16711680
0.255283 -0.0837708 0.0230551 16711680
0.254397 -0.0833349 0.0220072 16711680
0.253338 -0.0829566 0.0207566 16711680
0.25277 -0.0824104 0.0200809 16711680
0.252398 -0.0817973 0.0196342 16711680
0.251874 -0.0812353 0.0190095 16711680
0.251996 -0.0804555 0.0191386 16711680
0.252872 -0.0794224 0.0201504 16711680
0.254251 -0.0782224 0.0217491 16711680
0.253489 -0.0777401 0.0208464 16711680
0.251546 -0.077651 0.0185629 16711680
0.251191 -0.0770302 0.0181365 16711680
0.251553 -0.0761712 0.0185469 16711680
0.251302 -0.0755161 0.0182406 16711680
0.251519 -0.0747056 0.0184827 16711680
0.25119 -0.0740761 0.0180851 16711680
0.251278 -0.0733089 0.0181752 16711680
0.251137 -0.072617 0.0179982 16711680
0.251204 -0.0718567 0.0180646 16711680
0.251008 -0.071183 0.0178226 16711680
0.251154 -0.070397 0.0179818 16711680
0.25103 -0.0696997 0.0178242 16711680
0.251078 -0.0689462 0.0178682 16711680
0.250942 -0.0682528 0.0176964 16711680
0.25097 -0.0675063 0.0177165 16711680
0.250972 -0.066768 0.0177069 16711680
0.250916 -0.0660487 0.0176291 16711680
0.250936 -0.065305 0.0176399 16711680
0.250898 -0.0645801 0.0175829 16711680
0.250975 -0.0638182 0.0176612 16711680
0.250829 -0.063128 0.017478 16711680
0.251103 -0.0623038 0.0177861 16711680
0.250845 -0.0616493 0.0174719 16711680
0.250805 -0.0609253 0.017413 16711680
0.250744 -0.060208 0.0173292 16711680
0.250947 -0.0594075 0.0175539 16711680
0.25076 -0.05873 0.0173236 16711680
0.251221 -0.0578487 0.0178504 16711680
0.256238 -0.083641 0.0230612 16711680
0.255013 -0.0833208 0.021616 16711680
0.25411 -0.0828898 0.0205468 16711680
0.253312 -0.0824219 0.019601 16711680
0.253119 -0.0817484 0.0193632 16711680
0.252674 -0.0811599 0.0188299 16711680
0.252805 -0.0803771 0.0189705 16711680
0.253149 -0.0795226 0.0193614 16711680
0.254457 -0.0783458 0.0208794 16711680
0.254647 -0.077545 0.0210893 16711680
0.253378 -0.0772317 0.0195919 16711680
0.251941 -0.0769725 0.017899 16711680
0.252068 -0.0761918 0.0180342 16711680
0.252323 -0.0753685 0.0183209 16711680
0.252367 -0.0746157 0.0183604 16711680
0.252049 -0.0739829 0.0179752 16711680
0.252017 -0.0732553 0.0179254 16711680
0.25201 -0.0725195 0.017905 16711680
0.251999 -0.0717851 0.01788 16711680
0.251832 -0.0711019 0.0176723 16711680
0.251799 -0.0703747 0.0176218 16711680
0.251971 -0.069581 0.0178103 16711680
0.251842 -0.0688853 0.0176477 16711680
0.251851 -0.0681448 0.017646 16711680
0.251698 -0.0674571 0.0174544 16711680
0.251893 -0.0666567 0.0176702 16711680
0.251808 -0.065947 0.0175587 16711680
0.252313 -0.0650474 0.0181373 16711680
0.252453 -0.0642659 0.0182886 16711680
0.252729 -0.0634412 0.0185988 16711680
0.25326 -0.0625354 0.019208 16711680
0.253147 -0.0618357 0.0190642 16711680
0.253036 -0.0611354 0.0189222 16711680
0.252683 -0.0605119 0.018497 16711680
0.252788 -0.059743 0.0186076 16711680
0.252425 -0.0591223 0.0181707 16711680
0.252467 -0.0583734 0.0182077 16711680
0.252499 -0.0576279 0.0182328 16711680
0.254892 -0.0835576 0.0203613 16711680
0.254774 -0.0828595 0.020211 16711680
0.254595 -0.0821821 0.019989 16711680
0.25416 -0.0815913 0.0194666 16711680
0.253405 -0.0811075 0.0185713 16711680
0.253555 -0.0803183 0.0187343 16711680
0.253758 -0.0795116 0.0189595 16711680
0.254367 -0.0785691 0.0196604 16711680
0.255812 -0.0773478 0.0213397 16711680
0.255441 -0.0767349 0.0208938 16711680
0.25355 -0.0766285 0.018667 16711680
0.252463 -0.0762519 0.0173823 16711680
0.25266 -0.0754482 0.0175999 16711680
0.253012 -0.0745931 0.0180004 16711680
0.253116 -0.0738208 0.0181093 16711680
0.252881 -0.0731604 0.0178225 16711680
0.253033 -0.0723724 0.0179886 16711680
0.252788 -0.0717154 0.0176886 16711680
0.252858 -0.0709548 0.0177583 16711680
0.252727 -0.0702597 0.0175939 16711680
0.25366 -0.069218 0.0186739 16711680
0.254511 -0.0682042 0.0196586 16711680
0.255393 -0.067182 0.0206783 16711680
0.255437 -0.0664322 0.0207183 16711680
0.255993 -0.0655174 0.0213572 16711680
0.256691 -0.0645574 0.0221628 16711680
0.257041 -0.0637108 0.0225601 16711680
0.257297 -0.0628948 0.0228486 16711680
0.257519 -0.0620904 0.0230958 16711680
0.257529 -0.061354 0.0230958 16711680
0.257348 -0.0606789 0.0228713 16711680
0.256884 -0.0600935 0.0223161 16711680
0.256836 -0.0593755 0.022248 16711680
0.25659 -0.0587206 0.0219469 16711680
0.256483 -0.058021 0.0218104 16711680
0.256406 -0.0573121 0.0217085 16711680
0.25635 -0.0825196 0.020943 16711680
0.255925 -0.0819264 0.0204327 16711680
0.255074 -0.0814765 0.0194238 16711680
0.254972 -0.0807729 0.0192919 16711680
0.25459 -0.0801637 0.0188316 16711680
0.254392 -0.0794921 0.0185875 16711680
0.254797 -0.0786177 0.0190506 16711680
0.256137 -0.0774314 0.0206082 16711680
0.25669 -0.0765099 0.0212439 16711680
0.253023 -0.0755188 0.0169103 16711680
0.253798 -0.0745234 0.0178066 16711680
0.254141 -0.0736721 0.0181966 16711680
0.253816 -0.0730421 0.017803 16711680
0.254679 -0.0720204 0.0188023 16711680
0.256131 -0.0708063 0.0204927 16711680
0.257345 -0.0696726 0.0219036 16711680
0.258268 -0.0686361 0.0229727 16711680
0.258271 -0.067901 0.0229646 16711680
0.258358 -0.0671388 0.0230544 16711680
0.258378 -0.0663988 0.0230651 16711680
0.258292 -0.0656928 0.0229533 16711680
0.258315 -0.0649521 0.0229673 16711680
0.258201 -0.0642553 0.0228224 16711680
0.258387 -0.0634619 0.0230287 16711680
0.258255 -0.0627714 0.0228614 16711680
0.258429 -0.0619825 0.0230532 16711680
0.258313 -0.0612866 0.0229059 16711680
0.258188 -0.0605937 0.0227472 16711680
0.257856 -0.0599667 0.0223459 16711680
0.257983 -0.0591933 0.0224829 16711680
0.257777 -0.0585261 0.0222288 16711680
0.257832 -0.0577758 0.0222816 16711680
0.256817 -0.0818189 0.0203645 16711680
0.255821 -0.0814188 0.019184 16711680
0.25581 -0.0806842 0.01916 16711680
0.255347 -0.0801026 0.0186042 16711680
0.255141 -0.0794336 0.0183511 16711680
0.255252 -0.0786585 0.0184684 16711680
0.256076 -0.0776443 0.0194232 16711680
0.257423 -0.0764567 0.0209916 16711680
0.254385 -0.075258 0.0173908 16711680
0.257066 -0.0736312 0.0205243 16711680
0.258377 -0.0724614 0.0220507 16711680
0.259395 -0.0713906 0.0232322 16711680
0.259394 -0.0706567 0.0232198 16711680
0.259405 -0.0699193 0.0232201 16711680
0.259436 -0.0691751 0.0232453 16711680
0.259222 -0.0685116 0.0229816 16711680
0.259226 -0.0677766 0.0229741 16711680
0.259046 -0.0671014 0.0227517 16711680
0.25907 -0.06636 0.022768 16711680
0.258854 -0.0656967 0.0225018 16711680
0.258885 -0.0649532 0.0225261 16711680
0.258731 -0.0642692 0.0223346 16711680
0.258823 -0.0635063 0.0224302 16711680
0.258692 -0.0628153 0.022264 16711680
0.258824 -0.0620398 0.0224068 16711680
0.258576 -0.0613861 0.0221044 16711680
0.258476 -0.0606849 0.0219752 16711680
0.258231 -0.06003 0.0216759 16711680
0.258427 -0.0592346 0.0218939 16711680
0.258306 -0.0585402 0.02174 16711680
0.257375 -0.0818245 0.0199056 16711680
0.25714 -0.0811667 0.0196178 16711680
0.256941 -0.0804966 0.0193715 16711680
0.2564 -0.0799417 0.0187243 16711680
0.256346 -0.0792218 0.0186498 16711680
0.256012 -0.0785963 0.0182458 16711680
0.25664 -0.0776482 0.0189705 16711680
0.25806 -0.0764359 0.0206256 16711680
0.259742 -0.075138 0.0225896 16711680
0.260365 -0.074196 0.023308 16711680
0.260503 -0.0734156 0.0234588 16711680
0.260411 -0.0727121 0.0233389 16711680
0.260405 -0.0719801 0.0233197 16711680
0.260203 -0.0713131 0.0230702 16711680
0.26018 -0.0705865 0.0230323 16711680
0.259989 -0.0699156 0.0227959 16711680
0.260006 -0.0691761 0.0228043 16711680
0.259768 -0.0685204 0.0225124 16711680
0.259766 -0.0677875 0.0224978 16711680
0.259521 -0.0671337 0.0221983 16711680
0.259497 -0.0664077 0.0221584 16711680
0.25926 -0.0657508 0.0218689 16711680
0.259218 -0.0650308 0.0218077 16711680
0.259097 -0.0643365 0.0216529 16711680
0.259102 -0.0636013 0.0216471 16711680
0.259012 -0.0628969 0.0215292 16711680
0.25908 -0.0621417 0.0215974 16711680
0.258816 -0.0614929 0.0212758 16711680
0.258527 -0.0608519 0.020925 16711680
0.258268 -0.0602012 0.0206088 16711680
0.258201 -0.0594889 0.0205188 16711680
0.259515 -0.0812926 0.0213059 16711680
0.258374 -0.0809433 0.0199523 16711680
0.257885 -0.0803716 0.0193665 16711680
0.257281 -0.0798384 0.0186443 16711680
0.257169 -0.0791386 0.0185004 16711680
0.256843 -0.0785106 0.0181059 16711680
0.258124 -0.0773434 0.0195988 16711680
0.261197 -0.0755779 0.0231993 16711680
0.261705 -0.0746741 0.0237837 16711680
0.261356 -0.0740564 0.0233624 16711680
0.26128 -0.0733479 0.0232606 16711680
0.260921 -0.072733 0.0228274 16711680
0.260885 -0.072011 0.022773 16711680
0.260695 -0.0713397 0.0225382 16711680
0.260664 -0.0706159 0.0224903 16711680
0.260391 -0.0699719 0.0221573 16711680
0.260391 -0.0692379 0.0221457 16711680
0.260197 -0.0685679 0.0219049 16711680
0.260086 -0.0678702 0.0217631 16711680
0.259806 -0.0672277 0.0214223 16711680
0.259653 -0.0665434 0.0212312 16711680
0.259626 -0.0658183 0.0211877 16711680
0.259441 -0.0651445 0.0209581 16711680
0.259473 -0.0644003 0.0209837 16711680
0.25939 -0.0636934 0.0208747 16711680
0.259358 -0.0629702 0.0208247 16711680
0.259394 -0.0622251 0.0208553 16711680
0.259281 -0.0615277 0.0207113 16711680
0.25889 -0.0609193 0.0202401 16711680
0.258681 -0.0602526 0.0199821 16711680
0.25856 -0.0595575 0.0198286 16711680
0.26122 -0.0809084 0.0221964 16711680
0.259712 -0.0806842 0.0204116 16711680
0.258926 -0.080214 0.0194747 16711680
0.258398 -0.0796554 0.0188417 16711680
0.258169 -0.0789954 0.0185606 16711680
0.260612 -0.0774366 0.0214223 16711680
0.262466 -0.0760789 0.0235915 16711680
0.262361 -0.0753799 0.0234569 16711680
0.262356 -0.0746477 0.0234394 16711680
0.261816 -0.074094 0.0227925 16711680
0.261683 -0.0734042 0.0226243 16711680
0.261311 -0.0727939 0.0221744 16711680
0.261183 -0.072102 0.0220125 16711680
0.261079 -0.0714022 0.0218782 16711680
0.260937 -0.070715 0.0216994 16711680
0.26082 -0.0700196 0.0215496 16711680
0.260657 -0.0693389 0.0213466 16711680
0.260482 -0.0686622 0.021129 16711680
0.260226 -0.068012 0.0208158 16711680
0.260198 -0.0672868 0.0207719 16711680
0.259951 -0.0666332 0.0204693 16711680
0.259974 -0.0658919 0.0204839 16711680
0.259814 -0.0652094 0.0202851 16711680
0.25987 -0.0644575 0.0203388 16711680
0.259756 -0.0637605 0.0201926 16711680
0.259845 -0.0629981 0.0202855 16711680
0.259802 -0.0622784 0.0202231 16711680
0.259659 -0.0615905 0.0200438 16711680
0.259393 -0.0609422 0.0197189 16711680
0.259192 -0.0602725 0.0194715 16711680
0.259082 -0.0595742 0.0193294 16711680
0.260405 -0.0799076 0.0201007 16711680
0.259708 -0.0794069 0.019268 16711680
0.26144 -0.0780861 0.0212958 16711680
0.263302 -0.0767243 0.0234759 16711680
0.263273 -0.0760001 0.0234306 16711680
0.263004 -0.0753566 0.0231017 16711680
0.262941 -0.0746438 0.0230159 16711680
0.262302 -0.074123 0.0222528 16711680
0.262089 -0.0734598 0.0219902 16711680
0.261754 -0.0728372 0.0215832 16711680
0.261474 -0.0721956 0.0212425 16711680
0.261445 -0.0714709 0.0211962 16711680
0.261158 -0.0708312 0.0208476 16711680
0.26115 -0.0700996 0.0208262 16711680
0.26097 -0.0694244 0.0206028 16711680
0.260928 -0.0687041 0.0205412 16711680
0.260655 -0.0680592 0.0202082 16711680
0.260698 -0.0673108 0.0202478 16711680
0.260479 -0.0666482 0.0199778 16711680
0.260575 -0.0658829 0.0200789 16711680
0.260505 -0.0651716 0.0199852 16711680
0.260586 -0.0644116 0.0200683 16711680
0.260691 -0.0636437 0.0201814 16711680
0.260691 -0.0629103 0.0201693 16711680
0.260957 -0.0620912 0.0204713 16711680
0.260514 -0.0615002 0.0199382 16711680
0.260081 -0.0609056 0.0194163 16711680
0.259807 -0.0602596 0.0190823 16711680
0.261966 -0.0795733 0.0208243 16711680
0.261982 -0.0788323 0.0208318 16711680
0.26424 -0.077335 0.0234809 16711680
0.263995 -0.0766835 0.0231814 16711680
0.263802 -0.0760145 0.0229425 16711680
0.263484 -0.0753873 0.0225562 16711680
0.263399 -0.0746822 0.0224433 16711680
0.262717 -0.0741758 0.0216287 16711680
0.262384 -0.0735525 0.0212246 16711680
0.262144 -0.072898 0.0209302 16711680
0.261872 -0.0722539 0.0205977 16711680
0.261867 -0.071521 0.0205809 16711680
0.261655 -0.0708565 0.0203197 16711680
0.261659 -0.0701207 0.020313 16711680
0.261481 -0.069445 0.0200915 16711680
0.261546 -0.0686893 0.0201569 16711680
0.261727 -0.0678959 0.0203586 16711680
0.261717 -0.0671656 0.0203342 16711680
0.262898 -0.0660467 0.0217148 16711680
0.263545 -0.0651033 0.0224659 16711680
0.263515 -0.0643806 0.0224197 16711680
0.263722 -0.0635816 0.0226513 16711680
0.263699 -0.0628571 0.0226128 16711680
0.263696 -0.0621263 0.0225976 16711680
0.263686 -0.0613977 0.0225748 16711680
0.263523 -0.0607184 0.0223713 16711680
0.262391 -0.0603495 0.0210252 16711680
0.261008 -0.0600591 0.0193843 16711680
0.262807 -0.0794826 0.0207015 16711680
0.26422 -0.078269 0.0223572 16711680
0.265395 -0.077138 0.0237318 16711680
0.264705 -0.0766371 0.0229065 16711680
0.264329 -0.07603 0.0224508 16711680
0.263866 -0.0754515 0.0218935 16711680
0.263798 -0.07474 0.0218023 16711680
0.263172 -0.0742152 0.0210521 16711680
0.262826 -0.0735964 0.020632 16711680
0.262696 -0.0729051 0.0204673 16711680
0.262479 -0.0722427 0.0202 16711680
0.262479 -0.0715081 0.020189 16711680
0.26242 -0.0707933 0.0201077 16711680
0.262709 -0.0699639 0.0204365 16711680
0.264397 -0.0686743 0.0224167 16711680
0.264798 -0.0678101 0.0228781 16711680
0.264738 -0.0670973 0.0227966 16711680
0.264671 -0.0663872 0.0227056 16711680
0.264578 -0.0656853 0.0225848 16711680
0.264517 -0.0649732 0.0225013 16711680
0.264446 -0.0642644 0.0224056 16711680
0.264373 -0.0635561 0.0223081 16711680
0.264364 -0.0628272 0.0222859 16711680
0.264267 -0.0621265 0.0221611 16711680
0.264231 -0.0614064 0.022107 16711680
0.263818 -0.0608075 0.0216081 16711680
0.263173 -0.0602825 0.0208356 16711680
0.26311 -0.0595706 0.0207498 16711680
0.264966 -0.0789447 0.0221355 16711680
0.265021 -0.0781916 0.0221897 16711680
0.266558 -0.0769383 0.0239928 16711680
0.266054 -0.0763753 0.0233864 16711680
0.264876 -0.0760385 0.021984 16711680
0.264136 -0.0755529 0.0210992 16711680
0.264036 -0.0748522 0.0209695 16711680
0.26374 -0.0742168 0.0206088 16711680
0.263467 -0.0735738 0.0202744 16711680
0.263371 -0.0728712 0.0201501 16711680
0.263944 -0.0719467 0.0208148 16711680
0.265412 -0.0707262 0.022537 16711680
0.265565 -0.0699428 0.0227069 16711680
0.265677 -0.0691734 0.0228279 16711680
0.265637 -0.0684546 0.0227681 16711680
0.265488 -0.0677713 0.0225811 16711680
0.265439 -0.0670551 0.0225126 16711680
0.265286 -0.0663733 0.0223197 16711680
0.265139 -0.0656889 0.0221357 16711680
0.265018 -0.0649965 0.0219804 16711680
0.264872 -0.0643118 0.0217973 16711680
0.264868 -0.0635811 0.0217808 16711680
0.264782 -0.0628769 0.0216687 16711680
0.264796 -0.0621406 0.0216734 16711680
0.264262 -0.0615808 0.0210319 16711680
0.263911 -0.0609618 0.0206054 16711680
0.26363 -0.0603196 0.0202627 16711680
0.263617 -0.0595916 0.020236 16711680
0.265693 -0.078158 0.0218697 16711680
0.267328 -0.0768713 0.0237902 16711680
0.267101 -0.0762152 0.0235102 16711680
0.266111 -0.0758154 0.0223298 16711680
0.265512 -0.0752834 0.02161 16711680
0.265436 -0.074575 0.0215095 16711680
0.265278 -0.0738944 0.0213109 16711680
0.265623 -0.0730454 0.0217078 16711680
0.26636 -0.0720668 0.0225673 16711680
0.266402 -0.07132 0.0226063 16711680
0.266448 -0.0705723 0.0226493 16711680
0.266415 -0.069851 0.0225983 16711680
0.266323 -0.069149 0.0224787 16711680
0.266229 -0.0684478 0.0223565 16711680
0.266028 -0.0677818 0.0221074 16711680
0.265988 -0.0670628 0.0220486 16711680
0.26577 -0.0664018 0.0217804 16711680
0.265431 -0.0657806 0.0213674 16711680
0.265441 -0.0650448 0.0213691 16711680
0.265153 -0.0644065 0.0210168 16711680
0.265246 -0.0636441 0.0211155 16711680
0.264977 -0.0629991 0.0207864 16711680
0.265146 -0.0622123 0.0209751 16711680
0.264647 -0.0616414 0.0203735 16711680
0.264421 -0.0609817 0.0200958 16711680
0.264212 -0.0603166 0.0198379 16711680
0.266583 -0.0780502 0.0218084 16711680
0.267747 -0.0769228 0.0231737 16711680
0.267779 -0.0761791 0.0232004 16711680
0.267585 -0.0755119 0.0229589 16711680
0.267457 -0.0748222 0.0227962 16711680
0.267339 -0.074129 0.0226456 16711680
0.267178 -0.07345 0.0224446 16711680
0.267188 -0.0727139 0.0224452 16711680
0.267177 -0.0719849 0.0224215 16711680
0.26732 -0.071205 0.0225788 16711680
0.267004 -0.0705776 0.0221941 16711680
0.266702 -0.0699453 0.0218253 16711680
0.266781 -0.0691867 0.0219078 16711680
0.266683 -0.0684865 0.0217811 16711680
0.266489 -0.0678182 0.0215403 16711680
0.266298 -0.0671487 0.0213026 16711680
0.266187 -0.0664528 0.0211599 16711680
0.265754 -0.0658618 0.0206374 16711680
0.265759 -0.0651277 0.0206323 16711680
0.265453 -0.0644951 0.0202583 16711680
0.265511 -0.0637439 0.0203159 16711680
0.265294 -0.0630817 0.0200485 16711680
0.265347 -0.0623324 0.0200996 16711680
0.265083 -0.0616854 0.0197759 16711680
0.26502 -0.0609733 0.0196908 16711680
0.264825 -0.0603038 0.0194485 16711680
0.269173 -0.0780987 0.0237706 16711680
0.268121 -0.0777227 0.0225146 16711680
0.268294 -0.076931 0.0227083 16711680
0.268349 -0.0761797 0.0227621 16711680
0.268183 -0.0755029 0.022554 16711680
0.268084 -0.0748034 0.0224258 16711680
0.267787 -0.0741704 0.022063 16711680
0.26759 -0.0735034 0.0218192 16711680
0.267677 -0.0727416 0.0219108 16711680
0.267624 -0.0720266 0.0218371 16711680
0.26782 -0.0712289 0.0220579 16711680
0.267568 -0.0705804 0.0217477 16711680
0.267212 -0.0699659 0.0213151 16711680
0.267228 -0.0692279 0.0213238 16711680
0.267283 -0.0684775 0.0213774 16711680
0.266942 -0.0678573 0.0209632 16711680
0.266532 -0.0672597 0.0204663 16711680
0.26642 -0.0665638 0.0203227 16711680
0.26605 -0.0659524 0.019873 16711680
0.266 -0.0652361 0.0198028 16711680
0.265834 -0.0645576 0.0195949 16711680
0.265837 -0.063824 0.0195876 16711680
0.265774 -0.063112 0.0195017 16711680
0.265767 -0.0623816 0.0194832 16711680
0.265619 -0.0616973 0.0192962 16711680
0.265588 -0.060975 0.0192485 16711680
0.26538 -0.0603094 0.0189917 16711680
0.270586 -0.0778124 0.0243318 16711680
0.269407 -0.0774806 0.0229232 16711680
0.269399 -0.0767506 0.0229031 16711680
0.268851 -0.0762031 0.0222431 16711680
0.26854 -0.0755753 0.0218632 16711680
0.268554 -0.0748376 0.0218689 16711680
0.268309 -0.074187 0.0215679 16711680
0.267963 -0.0735701 0.0211467 16711680
0.268029 -0.0728152 0.0212135 16711680
0.26786 -0.0721386 0.0210028 16711680
0.267826 -0.0714173 0.0209507 16711680
0.268281 -0.0705333 0.0214796 16711680
0.268036 -0.0698825 0.0211774 16711680
0.267739 -0.0692482 0.0208147 16711680
0.267735 -0.068517 0.0207994 16711680
0.267496 -0.0678635 0.0205047 16711680
0.266673 -0.0674013 0.0195193 16711680
0.265697 -0.0669886 0.0183508 16711680
0.265965 -0.0661674 0.0186576 16711680
0.265527 -0.0655771 0.0181282 16711680
0.266234 -0.0624158 0.0189219 16711680
0.266216 -0.0616894 0.0188888 16711680
0.266125 -0.0609863 0.0187706 16711680
0.265904 -0.0603253 0.0184971 16711680
0.271255 -0.0777789 0.0240126 16711680
0.270264 -0.0773835 0.0228261 16711680
0.270016 -0.076735 0.0225215 16711680
0.269398 -0.0762114 0.0217775 16711680
0.268969 -0.0756233 0.0212579 16711680
0.268948 -0.0748975 0.0212214 16711680
0.268623 -0.0742736 0.0208255 16711680
0.268336 -0.0736369 0.0204736 16711680
0.268155 -0.0729643 0.0202482 16711680
0.268295 -0.0721843 0.0204039 16711680
0.268261 -0.0714628 0.0203521 16711680
0.269075 -0.0704594 0.0213071 16711680
0.269204 -0.0696846 0.0214489 16711680
0.268353 -0.0692343 0.0204283 16711680
0.267927 -0.0686425 0.0199124 16711680
0.284814 -0.0609055 0.039911 16711680
0.284441 -0.0603077 0.0394567 16711680
0.284533 -0.0595572 0.0395553 16711680
0.284344 -0.0588985 0.0393211 16711680
0.283991 -0.058293 0.0388919 16711680
0.266725 -0.0617098 0.0183778 16711680
0.266664 -0.0609971 0.0182947 16711680
0.271741 -0.0778078 0.023476 16711680
0.270868 -0.0773723 0.0224291 16711680
0.270552 -0.0767469 0.0220435 16711680
0.269913 -0.0762305 0.0212741 16711680
0.269402 -0.0756703 0.020656 16711680
0.269346 -0.0749559 0.0205789 16711680
0.269039 -0.0743259 0.0202041 16711680
0.268835 -0.0736612 0.019951 16711680
0.268626 -0.072998 0.0196918 16711680
0.268662 -0.0722528 0.0197238 16711680
0.26856 -0.0715537 0.0195919 16711680
0.269306 -0.0705727 0.0204666 16711680
0.269995 -0.0696117 0.0212737 16711680
0.285713 -0.0622355 0.0399022 16711680
0.285227 -0.0616752 0.0393147 16711680
0.284685 -0.0611328 0.0386599 16711680
0.284688 -0.0604111 0.0386527 16711680
0.284489 -0.0597555 0.038406 16711680
0.284541 -0.0590179 0.0384573 16711680
0.284554 -0.0582932 0.0384622 16711680
0.285366 -0.0573093 0.0394154 16711680
0.285852 -0.056432 0.0399824 16711680
0.273353 -0.0781844 0.0242884 16711680
0.272257 -0.0778263 0.0229757 16711680
0.271542 -0.0773371 0.0221158 16711680
0.271188 -0.076725 0.0216838 16711680
0.270495 -0.0762271 0.0208495 16711680
0.269914 -0.0756904 0.0201485 16711680
0.269917 -0.0749563 0.0201412 16711680
0.269554 -0.0743452 0.0196993 16711680
0.269372 -0.073673 0.0194726 16711680
0.269146 -0.0730156 0.0191928 16711680
0.269318 -0.072225 0.0193861 16711680
0.269026 -0.0715893 0.0190285 16711680
0.269295 -0.0707666 0.0193377 16711680
0.269631 -0.0699222 0.0197265 16711680
0.286346 -0.0629325 0.0395678 16711680
0.285406 -0.0625222 0.0384403 16711680
0.285343 -0.0618222 0.0383546 16711680
0.285123 -0.0611737 0.0380827 16711680
0.285131 -0.0604503 0.0380815 16711680
0.285015 -0.0597678 0.0379324 16711680
0.285264 -0.0589657 0.0382184 16711680
0.286149 -0.0579574 0.0392588 16711680
0.286673 -0.0570676 0.0398712 16711680
0.286368 -0.0564472 0.0394986 16711680
0.285619 -0.0559703 0.0385976 16711680
0.286119 -0.0550893 0.0391814 16711680
0.272873 -0.0778106 0.0225942 16711680
0.272102 -0.077341 0.0216662 16711680
0.271806 -0.0767092 0.0213032 16711680
0.271044 -0.0762347 0.0203866 16711680
0.270451 -0.0757022 0.0196706 16711680
0.270528 -0.0749431 0.019751 16711680
0.270181 -0.0743266 0.0193285 16711680
0.269881 -0.0736943 0.0189605 16711680
0.269678 -0.0730289 0.0187089 16711680
0.269925 -0.0722131 0.0189917 16711680
0.269704 -0.0715539 0.0187179 16711680
0.269708 -0.0708196 0.0187119 16711680
0.28778 -0.0633641 0.0401855 16711680
0.286645 -0.0630199 0.0388247 16711680
0.285906 -0.0625432 0.0379355 16711680
0.285925 -0.0618161 0.0379475 16711680
0.286079 -0.0610448 0.0381202 16711680
0.286305 -0.0602502 0.0383782 16711680
0.287343 -0.0591902 0.039603 16711680
0.287529 -0.0584103 0.0398133 16711680
0.287458 -0.0577142 0.0397184 16711680
0.28758 -0.0569553 0.0398537 16711680
0.287157 -0.0563738 0.0393394 16711680
0.286506 -0.0558651 0.0385555 16711680
0.286495 -0.0551493 0.0385319 16711680
0.274557 -0.0781625 0.0234935 16711680
0.273544 -0.0777764 0.022278 16711680
0.272706 -0.0773297 0.0212697 16711680
0.272459 -0.0766814 0.0209645 16711680
0.271664 -0.0762182 0.020008 16711680
0.27117 -0.0756522 0.0194097 16711680
0.271187 -0.0749137 0.0194184 16711680
0.270919 -0.0742709 0.0190887 16711680
0.270569 -0.0736554 0.0186616 16711680
0.270263 -0.0730247 0.0182871 16711680
0.270623 -0.0721709 0.0187055 16711680
0.270484 -0.0714845 0.0185292 16711680
0.270321 -0.0708058 0.0183246 16711680
0.288424 -0.063337 0.0398542 16711680
0.287458 -0.062937 0.0386937 16711680
0.287516 -0.0621976 0.0387523 16711680
0.287809 -0.0613809 0.0390908 16711680
0.288189 -0.0605362 0.0395327 16711680
0.288282 -0.0597862 0.0396335 16711680
0.288161 -0.0591066 0.0394789 16711680
0.288187 -0.0583788 0.0395 16711680
0.28794 -0.0577404 0.0391946 16711680
0.28821 -0.0569333 0.0395063 16711680
0.287792 -0.05635 0.0389987 16711680
0.28727 -0.0558002 0.0383661 16711680
0.287138 -0.0551234 0.0381992 16711680
0.276592 -0.078392 0.0248144 16711680
0.275533 -0.0780237 0.0235419 16711680
0.27432 -0.0777063 0.022087 16711680
0.273445 -0.0772727 0.0210333 16711680
0.273123 -0.0766496 0.0206399 16711680
0.272513 -0.076124 0.0199025 16711680
0.272531 -0.0753855 0.0199127 16711680
0.272168 -0.0747755 0.0194697 16711680
0.272265 -0.0740101 0.0195749 16711680
0.2713 -0.0736018 0.018415 16711680
0.270946 -0.0729875 0.0179825 16711680
0.271773 -0.0719775 0.0189577 16711680
0.272006 -0.0711674 0.0192239 16711680
0.289916 -0.0637474 0.0405446 16711680
0.289319 -0.0632266 0.0398221 16711680
0.288989 -0.0626162 0.0394193 16711680
0.288699 -0.0619923 0.0390636 16711680
0.288751 -0.0612558 0.0391142 16711680
0.288917 -0.0604816 0.0393022 16711680
0.289036 -0.0597232 0.0394337 16711680
0.288724 -0.0591063 0.0390515 16711680
0.288729 -0.0583854 0.0390472 16711680
0.288426 -0.0577649 0.0386767 16711680
0.288813 -0.05692 0.0391268 16711680
0.288379 -0.0563421 0.0385995 16711680
0.287875 -0.0557864 0.0379883 16711680
0.287566 -0.0551668 0.0376107 16711680
0.28801 -0.0514291 0.0380887 16711680
0.276398 -0.0779227 0.0234588 16711680
0.275193 -0.0776032 0.0220116 16711680
0.274363 -0.0771544 0.0210115 16711680
0.27398 -0.0765525 0.0205445 16711680
0.273817 -0.0758757 0.0203394 16711680
0.273817 -0.0751435 0.0203292 16711680
0.273547 -0.0745027 0.0199966 16711680
0.273685 -0.0737242 0.0201504 16711680
0.272648 -0.0733408 0.0189042 16711680
0.273027 -0.0724812 0.0193454 16711680
0.272959 -0.0717717 0.0192543 16711680
0.272652 -0.0711423 0.0188775 16711680
0.290522 -0.0637327 0.0401691 16711680
0.290309 -0.0630842 0.0399052 16711680
0.290104 -0.0624331 0.0396501 16711680
0.289507 -0.0619111 0.0389284 16711680
0.289348 -0.0612442 0.0387279 16711680
0.289608 -0.060439 0.0390283 16711680
0.289693 -0.059692 0.0391188 16711680
0.289296 -0.0591029 0.0386358 16711680
0.289259 -0.0583957 0.0385816 16711680
0.288904 -0.0577925 0.0381476 16711680
0.289299 -0.0569446 0.0386089 16711680
0.289051 -0.0563065 0.0383022 16711680
0.288535 -0.0557548 0.0376766 16711680
0.288061 -0.0551889 0.0371008 16711680
0.277938 -0.0783206 0.0241929 16711680
0.277057 -0.0778919 0.023131 16711680
0.275904 -0.0775551 0.0217439 16711680
0.275594 -0.0769292 0.0213641 16711680
0.275118 -0.0763598 0.0207847 16711680
0.275177 -0.075608 0.0208452 16711680
0.274743 -0.0750232 0.0203173 16711680
0.27479 -0.0742757 0.0203626 16711680
0.274648 -0.0735919 0.020183 16711680
0.274641 -0.0728628 0.020164 16711680
0.27446 -0.072192 0.0199376 16711680
0.288571 -0.0652901 0.0367522 16711680
0.291134 -0.0637159 0.0398011 16711680
0.290958 -0.0630552 0.0395814 16711680
0.290755 -0.0624035 0.0393283 16711680
0.290331 -0.0618246 0.0388119 16711680
0.290009 -0.0612113 0.0384184 16711680
0.290125 -0.0604538 0.0385462 16711680
0.290284 -0.0596823 0.038726 16711680
0.289892 -0.0590918 0.0382477 16711680
0.289813 -0.0583984 0.0381439 16711680
0.289469 -0.0577917 0.0377222 16711680
0.289715 -0.0569922 0.0380064 16711680
0.289774 -0.056254 0.0380667 16711680
0.289128 -0.0557448 0.0372851 16711680
0.28843 -0.0552514 0.0364417 16711680
0.279223 -0.0780751 0.0246133 16711680
0.27823 -0.0776852 0.0234174 16711680
0.277335 -0.0772607 0.0223379 16711680
0.276658 -0.0767611 0.0215179 16711680
0.276388 -0.0761218 0.0211849 16711680
0.276104 -0.075487 0.0208354 16711680
0.275516 -0.0749547 0.0201232 16711680
0.275664 -0.074173 0.0202901 16711680
0.275346 -0.073549 0.0198995 16711680
0.27571 -0.072695 0.0203236 16711680
0.28623 -0.0662595 0.0328528 16711680
0.291661 -0.0637272 0.0393324 16711680
0.291583 -0.0630341 0.039229 16711680
0.291335 -0.0623972 0.0389228 16711680
0.29109 -0.0617593 0.0386196 16711680
0.290851 -0.0611188 0.0383247 16711680
0.290489 -0.0605191 0.0378813 16711680
0.290869 -0.0596747 0.0383257 16711680
0.29039 -0.0591129 0.037743 16711680
0.29029 -0.0584265 0.0376132 16711680
0.28992 -0.0578278 0.0371621 16711680
0.289694 -0.0571821 0.0368818 16711680
0.290224 -0.0562904 0.0375054 16711680
0.289774 -0.0557176 0.036957 16711680
0.288876 -0.0552893 0.0358737 16711680
0.280386 -0.0778709 0.0248899 16711680
0.279622 -0.0774032 0.0239668 16711680
0.278279 -0.077133 0.0223496 16711680
0.27764 -0.0766204 0.0215755 16711680
0.277731 -0.0758584 0.0216749 16711680
0.277056 -0.075357 0.0208576 16711680
0.276263 -0.0748949 0.0198985 16711680
0.276348 -0.0741347 0.01999 16711680
0.276419 -0.0733795 0.0200644 16711680
0.276494 -0.0726228 0.0201448 16711680
0.275721 -0.0721518 0.0192096 16711680
0.286966 -0.0669251 0.0326382 16711680
0.286525 -0.0663492 0.0321009 16711680
0.292078 -0.0637756 0.0387309 16711680
0.292078 -0.0630561 0.0387216 16711680
0.291903 -0.0623953 0.0385016 16711680
0.291773 -0.0617191 0.0383366 16711680
0.291588 -0.0610611 0.0381055 16711680
0.290848 -0.0605858 0.0372108 16711680
0.291428 -0.0596756 0.037894 16711680
0.290861 -0.0591426 0.0372066 16711680
0.290592 -0.0585113 0.0368749 16711680
0.290327 -0.0578788 0.0365472 16711680
0.289678 -0.0573709 0.0357615 16711680
0.29058 -0.0563574 0.0368308 16711680
0.290219 -0.0557556 0.0363891 16711680
0.281264 -0.0777644 0.0248266 16711680
0.280423 -0.0773238 0.0238096 16711680
0.279233 -0.0770013 0.0223756 16711680
0.278355 -0.0765706 0.0213151 16711680
0.278322 -0.0758512 0.0212651 16711680
0.277867 -0.0752753 0.0207101 16711680
0.277383 -0.0747085 0.0201209 16711680
0.2774 -0.0739718 0.0201308 16711680
0.27753 -0.0731968 0.0202765 16711680
0.288334 -0.0673787 0.0331795 16711680
0.287545 -0.0669204 0.0322244 16711680
0.286985 -0.0663843 0.0315446 16711680
0.290071 -0.064632 0.0352284 16711680
0.292423 -0.0631283 0.038034 16711680
0.292389 -0.0624203 0.0379834 16711680
0.292349 -0.0617142 0.0379264 16711680
0.292107 -0.0610753 0.0376259 16711680
0.291325 -0.0606139 0.0366805 16711680
0.29187 -0.059715 0.037323 16711680
0.291253 -0.0591986 0.0365744 16711680
0.290975 -0.0585701 0.0362321 16711680
0.290775 -0.057916 0.0359827 16711680
0.290173 -0.0573928 0.0352523 16711680
0.290835 -0.0564574 0.0360351 16711680
0.290561 -0.0558273 0.0356966 16711680
0.281836 -0.0777631 0.0243974 16711680
0.280991 -0.077324 0.0233746 16711680
0.279995 -0.0769352 0.0221723 16711680
0.279103 -0.0765099 0.0210931 16711680
0.278913 -0.0758441 0.0208552 16711680
0.278507 -0.0752514 0.0203592 16711680
0.27859 -0.0744922 0.020449 16711680
0.27806 -0.0739412 0.0198038 16711680
0.278215 -0.073158 0.0199789 16711680
0.277826 -0.0725584 0.0195035 16711680
0.288158 -0.0669042 0.031852 16711680
0.287694 -0.0663363 0.0312862 16711680
0.288327 -0.0654015 0.0320357 16711680
0.292244 -0.0633747 0.0367188 16711680
0.292215 -0.0626647 0.0366737 16711680
0.292631 -0.0618068 0.0371635 16711680
0.292469 -0.0611412 0.0369593 16711680
0.291685 -0.0606807 0.0360096 16711680
0.291821 -0.0599163 0.0361625 16711680
0.291729 -0.0592267 0.0360435 16711680
0.291289 -0.0586516 0.035506 16711680
0.291171 -0.0579704 0.0353551 16711680
0.290511 -0.0574662 0.0345545 16711680
0.291039 -0.0565742 0.0351775 16711680
0.290768 -0.0559428 0.0348425 16711680
0.282285 -0.0778041 0.0238206 16711680
0.281428 -0.0773692 0.0227828 16711680
0.280404 -0.0769902 0.0215452 16711680
0.279796 -0.0764676 0.0208064 16711680
0.279722 -0.0757623 0.0207078 16711680
0.279325 -0.0751669 0.0202219 16711680
0.279394 -0.0744129 0.0202944 16711680
0.278978 -0.0738232 0.0197864 16711680
0.279268 -0.0729945 0.0201238 16711680
0.278448 -0.072541 0.0191299 16711680
0.288857 -0.066859 0.0315832 16711680
0.288411 -0.0662852 0.0310389 16711680
0.288703 -0.0654645 0.0313791 16711680
0.291152 -0.0639256 0.0343072 16711680
0.291853 -0.0629718 0.0351373 16711680
0.292425 -0.0620616 0.0358139 16711680
0.292585 -0.0612888 0.0359962 16711680
0.292017 -0.0607569 0.0353047 16711680
0.291882 -0.0600812 0.0351342 16711680
0.292108 -0.0592871 0.0353949 16711680
0.291642 -0.0587201 0.0348269 16711680
0.291529 -0.0580376 0.0346807 16711680
0.291077 -0.0574653 0.034129 16711680
0.291072 -0.0567468 0.0341141 16711680
0.291236 -0.0559735 0.0343009 16711680
0.282757 -0.077837 0.0232717 16711680
0.281912 -0.0773981 0.0222473 16711680
0.280972 -0.0769905 0.0211096 16711680
0.280534 -0.0764099 0.0205742 16711680
0.280373 -0.0757344 0.0203713 16711680
0.280032 -0.0751201 0.0199521 16711680
0.280161 -0.0743459 0.0200962 16711680
0.279743 -0.0737571 0.0195854 16711680
0.28005 -0.0729229 0.0199434 16711680
0.279363 -0.0724244 0.0191097 16711680
0.2905 -0.0672193 0.0324581 16711680
0.289676 -0.0667734 0.0314595 16711680
0.289191 -0.0662129 0.0308676 16711680
0.289265 -0.0654653 0.030946 16711680
0.290514 -0.0643259 0.0324364 16711680
0.291551 -0.0632594 0.0336708 16711680
0.291607 -0.0625197 0.0337286 16711680
0.292534 -0.0614918 0.0348319 16711680
0.292282 -0.060855 0.0345196 16711680
0.291771 -0.0603035 0.0338962 16711680
0.292513 -0.0593387 0.0347782 16711680
0.292085 -0.0587596 0.0342541 16711680
0.292127 -0.0580257 0.0342958 16711680
0.291738 -0.0574333 0.0338182 16711680
0.291167 -0.0568993 0.0331237 16711680
0.29153 -0.0560611 0.0335495 16711680
0.290964 -0.0555249 0.0328604 16711680
0.289342 -0.0553301 0.0309039 16711680
0.283214 -0.0778753 0.022704 16711680
0.282471 -0.0774014 0.0218015 16711680
0.281596 -0.0769718 0.0207403 16711680
0.281362 -0.0763216 0.0204495 16711680
0.281098 -0.0756815 0.0201224 16711680
0.280813 -0.0750481 0.019771 16711680
0.280861 -0.0743013 0.0198191 16711680
0.280733 -0.0736146 0.0196553 16711680
0.280775 -0.0728701 0.019696 16711680
0.291391 -0.0671093 0.032421 16711680
0.290597 -0.0666535 0.0314581 16711680
0.2901 -0.0660976 0.0308508 16711680
0.289953 -0.0654238 0.0306649 16711680
0.290744 -0.0644372 0.0316056 16711680
0.291049 -0.0636136 0.0319628 16711680
0.291054 -0.0628902 0.0319588 16711680
0.292194 -0.0617909 0.0333186 16711680
0.29212 -0.0610946 0.0332202 16711680
0.291883 -0.060452 0.0329267 16711680
0.292911 -0.0593928 0.0341524 16711680
0.292436 -0.0588292 0.0335711 16711680
0.292483 -0.0580934 0.033619 16711680
0.292194 -0.057468 0.0332623 16711680
0.291677 -0.0569167 0.032631 16711680
0.291919 -0.0561177 0.0329121 16711680
0.291724 -0.0554608 0.0326691 16711680
0.283631 -0.0779274 0.0220882 16711680
0.282908 -0.0774466 0.021209 16711680
0.282141 -0.0769798 0.0202775 16711680
0.281939 -0.076319 0.0200241 16711680
0.28177 -0.0756465 0.0198112 16711680
0.28161 -0.0749707 0.0196096 16711680
0.281545 -0.0742626 0.0195215 16711680
0.281506 -0.0735455 0.0194652 16711680
0.281497 -0.0728183 0.0194452 16711680
0.292476 -0.0669337 0.0326189 16711680
0.291507 -0.0665374 0.0314441 16711680
0.291348 -0.0658682 0.0312437 16711680
0.29087 -0.0653059 0.030659 16711680
0.291031 -0.0645297 0.0308427 16711680
0.291152 -0.063767 0.0309788 16711680
0.291256 -0.0630103 0.0310944 16711680
0.292146 -0.0619934 0.0321552 16711680
0.291961 -0.0613334 0.0319232 16711680
0.291278 -0.0608377 0.0310923 16711680
0.292578 -0.0596878 0.0326467 16711680
0.293027 -0.0588196 0.0331777 16711680
0.292931 -0.0581309 0.0330528 16711680
0.292549 -0.0575361 0.0325832 16711680
0.291587 -0.05713 0.0314168 16711680
0.292225 -0.0562014 0.0321746 16711680
0.292411 -0.0554205 0.0323898 16711680
0.284067 -0.0779733 0.0214942 16711680
0.283432 -0.077462 0.0207208 16711680
0.282698 -0.0769842 0.0198277 16711680
0.282562 -0.0763005 0.0196545 16711680
0.282395 -0.0756273 0.0194443 16711680
0.282238 -0.0749507 0.0192455 16711680
0.282167 -0.0742446 0.0191506 16711680
0.282225 -0.0734947 0.0192108 16711680
0.282206 -0.0727712 0.0191782 16711680
0.282417 -0.07197 0.0194227 16711680
0.281683 -0.071488 0.0185299 16711680
0.293857 -0.0666581 0.0331742 16711680
0.29289 -0.066262 0.0320007 16711680
0.292326 -0.0657296 0.0313115 16711680
0.291882 -0.0651561 0.0307678 16711680
0.292045 -0.0643792 0.0309554 16711680
0.291695 -0.0637739 0.0305244 16711680
0.291735 -0.0630386 0.0305626 16711680
0.29192 -0.0622551 0.0307765 16711680
0.292089 -0.0614775 0.03097 16711680
0.291439 -0.0609705 0.0301785 16711680
0.29155 -0.0602122 0.0303023 16711680
0.293719 -0.0587772 0.0329044 16711680
0.293621 -0.0580892 0.0327775 16711680
0.293042 -0.0575588 0.0320711 16711680
0.291943 -0.0571978 0.030738 16711680
0.292243 -0.0563789 0.0310904 16711680
0.292984 -0.0554173 0.031973 16711680
0.285291 -0.078476 0.0218604 16711680
0.28469 -0.0779542 0.0211266 16711680
0.283971 -0.0774724 0.0202504 16711680
0.283295 -0.0769746 0.0194269 16711680
0.283249 -0.0762599 0.0193628 16711680
0.283013 -0.0756105 0.0190688 16711680
0.282823 -0.0749451 0.0188305 16711680
0.28277 -0.074233 0.018757 16711680
0.282918 -0.0734526 0.0189259 16711680
0.282846 -0.0727472 0.0188291 16711680
0.283066 -0.0719427 0.0190853 16711680
0.282617 -0.0713647 0.0185351 16711680
0.294105 -0.0660428 0.0323565 16711680
0.293431 -0.0655479 0.0315342 16711680
0.292907 -0.0650016 0.030894 16711680
0.292906 -0.0642801 0.0308832 16711680
0.292495 -0.063695 0.0303795 16711680
0.29255 -0.0629549 0.0304358 16711680
0.292462 -0.0622621 0.0303214 16711680
0.292536 -0.061516 0.0304008 16711680
0.292054 -0.0609536 0.0298109 16711680
0.291826 -0.060307 0.0295266 16711680
0.293538 -0.0590218 0.0315801 16711680
0.293782 -0.0582212 0.0318648 16711680
0.293543 -0.0575793 0.0315672 16711680
0.29336 -0.0569188 0.0313376 16711680
0.29344 -0.0561725 0.0314243 16711680
0.293456 -0.055447 0.0314348 16711680
0.286758 -0.0788939 0.0225192 16711680
0.285744 -0.0785159 0.0212876 16711680
0.28537 -0.0779158 0.0208269 16711680
0.284692 -0.0774198 0.0200002 16711680
0.284148 -0.0768771 0.0193347 16711680
0.284077 -0.0761712 0.01924 16711680
0.283646 -0.0755888 0.0187109 16711680
0.283652 -0.0748566 0.0187087 16711680
0.28349 -0.0741818 0.0185037 16711680
0.283676 -0.0733883 0.0187193 16711680
0.283635 -0.0726727 0.0186596 16711680
0.283816 -0.0718817 0.0188687 16711680
0.294768 -0.0660091 0.0320482 16711680
0.294347 -0.0654292 0.0315311 16711680
0.294224 -0.0647491 0.0313734 16711680
0.293908 -0.0641333 0.0309836 16711680
