# .PCD v0.7 - Point Cloud Data file format
VERSION 0.7
FIELDS x y z rgb
SIZE 4 4 4 4
TYPE F F F F
COUNT 1 1 1 1
WIDTH 1275
HEIGHT 1
VIEWPOINT 0 0 0 1 0 0 0
POINTS 1275
DATA ascii
0.335979 0.0756469 0.0567716 16711680
0.335692 0.0762695 0.0564104 16711680
0.336344 0.077082 0.0572077 16711680
0.33976 0.0784483 0.0614094 16711680
0.339987 0.0791715 0.0616819 16711680
0.339864 0.0798246 0.0615237 16711680
0.339698 0.0804692 0.0613124 16711680
0.339604 0.0811282 0.0611897 16711680
0.339623 0.0818096 0.0612063 16711680
0.339931 0.0825477 0.0615799 16711680
0.340499 0.0833361 0.0622725 16711680
0.341727 0.0842523 0.0637784 16711680
0.341602 0.0849037 0.0636175 16711680
0.340198 0.0853075 0.0618814 16711680
0.338603 0.0856763 0.0599098 16711680
0.342756 0.0871526 0.0650195 16711680
0.3434 0.0879506 0.0658064 16711680
0.342519 0.0884566 0.0647144 16711680
0.341953 0.0890236 0.0640107 16711680
0.342074 0.0897215 0.0641528 16711680
0.342023 0.0903866 0.0640829 16711680
0.341976 0.0910524 0.0640181 16711680
0.342616 0.091847 0.0648004 16711680
0.346486 0.0932434 0.0695621 16711680
0.345692 0.0937671 0.0685772 16711680
0.344935 0.0942988 0.0676385 16711680
0.344558 0.0949014 0.067167 16711680
0.344244 0.0955161 0.0667738 16711680
0.343731 0.0960947 0.0661349 16711680
0.343892 0.0967968 0.066326 16711680
0.343547 0.0974066 0.0658939 16711680
0.343119 0.098002 0.0653603 16711680
0.343425 0.0987301 0.0657303 16711680
0.343692 0.0994508 0.0660533 16711680
0.343934 0.100166 0.0663453 16711680
0.344465 0.100933 0.0669925 16711680
0.344679 0.101643 0.0672491 16711680
0.349696 0.103201 0.0734252 16711680
0.350515 0.104013 0.0744268 16711680
0.349638 0.104526 0.0733399 16711680
0.348922 0.105069 0.0724512 16711680
0.348638 0.105687 0.0720944 16711680
0.348168 0.106274 0.0715096 16711680
0.347355 0.106803 0.0705011 16711680
0.346648 0.10735 0.0696225 16711680
0.346469 0.107989 0.0693954 16711680
0.346033 0.108584 0.0688524 16711680
0.345384 0.109144 0.0680455 16711680
0.344666 0.109692 0.0671546 16711680
0.344353 0.11031 0.0667622 16711680
0.34378 0.110884 0.0660486 16711680
0.331676 0.0479038 0.0506542 16711680
0.330613 0.048347 0.049337 16711680
0.328945 0.0486527 0.047273 16711680
0.327498 0.0490115 0.0454834 16711680
0.326127 0.0493895 0.0437862 16711680
0.325146 0.0498578 0.0425693 16711680
0.324624 0.0504318 0.0419197 16711680
0.324695 0.0511401 0.0419999 16711680
0.324707 0.0518351 0.0420079 16711680
0.325412 0.0526853 0.0428697 16711680
0.326373 0.0535919 0.044048 16711680
0.326329 0.054273 0.0439878 16711680
0.326231 0.0549418 0.0438597 16711680
0.325227 0.05541 0.0426153 16711680
0.339575 0.0599515 0.0602911 16711680
0.339816 0.0606852 0.0605817 16711680
0.339837 0.0613704 0.0606008 16711680
0.340014 0.0620895 0.0608127 16711680
0.339814 0.0627262 0.0605588 16711680
0.339987 0.0634439 0.0607649 16711680
0.339809 0.0640857 0.0605398 16711680
0.340048 0.0648172 0.0608275 16711680
0.339781 0.0654397 0.0604911 16711680
0.33993 0.0661516 0.0606686 16711680
0.339715 0.0667854 0.0603962 16711680
0.3398 0.0674833 0.0604945 16711680
0.339455 0.0680901 0.0600631 16711680
0.339256 0.0687279 0.0598111 16711680
0.339032 0.0693606 0.0595275 16711680
0.338634 0.0699573 0.059031 16711680
0.338569 0.0706237 0.0589433 16711680
0.338164 0.0712196 0.0584379 16711680
0.337891 0.0718433 0.0580945 16711680
0.337716 0.0724875 0.0578722 16711680
0.337201 0.0730619 0.0572304 16711680
0.337119 0.0737257 0.0571223 16711680
0.336829 0.074347 0.0567582 16711680
0.336559 0.0749729 0.056419 16711680
0.336449 0.0756314 0.0562767 16711680
0.337333 0.076491 0.0573593 16711680
0.34077 0.0778643 0.0615915 16711680
0.340611 0.0785099 0.0613881 16711680
0.34058 0.0791813 0.0613432 16711680
0.340341 0.0798112 0.0610423 16711680
0.339974 0.0804159 0.0605829 16711680
0.339903 0.0810797 0.0604892 16711680
0.339549 0.0816876 0.0600461 16711680
0.340009 0.082456 0.0606068 16711680
0.340361 0.0832025 0.0610344 16711680
0.342262 0.0842507 0.0633708 16711680
0.343545 0.0851761 0.0649472 16711680
0.34251 0.0856502 0.0636638 16711680
0.341855 0.0861992 0.0628501 16711680
0.34447 0.087378 0.0660677 16711680
0.343773 0.0879182 0.0652015 16711680
0.343034 0.0884512 0.0642834 16711680
0.342616 0.0890463 0.0637612 16711680
0.342778 0.0897519 0.0639547 16711680
0.342856 0.0904413 0.0640441 16711680
0.342708 0.091088 0.0638556 16711680
0.346457 0.0924652 0.0684719 16711680
0.347063 0.0932502 0.069213 16711680
0.346274 0.0937746 0.068233 16711680
0.345603 0.0943221 0.0673995 16711680
0.345411 0.0949587 0.0671558 16711680
0.345032 0.0955613 0.0666825 16711680
0.344547 0.0961447 0.0660775 16711680
0.344475 0.0968041 0.0659819 16711680
0.344163 0.0974199 0.0655901 16711680
0.344163 0.0980928 0.0655845 16711680
0.344257 0.0987823 0.0656935 16711680
0.34484 0.0995594 0.0664053 16711680
0.345015 0.100263 0.0666144 16711680
0.345243 0.100975 0.0668895 16711680
0.34691 0.101943 0.0689389 16711680
0.351601 0.103442 0.0747175 16711680
0.35099 0.104001 0.0739576 16711680
0.350107 0.104514 0.0728623 16711680
0.349444 0.105066 0.0720379 16711680
0.349184 0.105689 0.0717111 16711680
0.348728 0.106278 0.0711421 16711680
0.347927 0.106808 0.070147 16711680
0.347238 0.107358 0.0692911 16711680
0.347063 0.107998 0.0690691 16711680
0.346645 0.108596 0.0685474 16711680
0.34582 0.109125 0.0675229 16711680
0.345251 0.109699 0.0668139 16711680
0.344818 0.110297 0.0662733 16711680
0.344333 0.110886 0.0656688 16711680
0.328644 0.0491478 0.0458094 16711680
0.327193 0.0495069 0.0440123 16711680
0.326009 0.0499286 0.0425441 16711680
0.32528 0.0504553 0.0416386 16711680
0.324983 0.0510804 0.0412649 16711680
0.325015 0.0517802 0.041298 16711680
0.325744 0.0526361 0.0421906 16711680
0.326715 0.0535451 0.0433816 16711680
0.327001 0.0542999 0.0437285 16711680
0.327018 0.0549941 0.0437419 16711680
0.328379 0.0559863 0.0454146 16711680
0.339796 0.0605614 0.0594839 16711680
0.339936 0.061273 0.0596498 16711680
0.340076 0.0619844 0.0598164 16711680
0.340025 0.0626538 0.0597464 16711680
0.340095 0.0633495 0.0598263 16711680
0.339998 0.064009 0.0597 16711680
0.340213 0.0647355 0.0599583 16711680
0.340021 0.0653746 0.0597153 16711680
0.340262 0.0661063 0.0600064 16711680
0.340093 0.06675 0.0597905 16711680
0.340137 0.0674395 0.0598391 16711680
0.339849 0.0680581 0.0594763 16711680
0.339584 0.0686823 0.0591433 16711680
0.339448 0.0693336 0.0589684 16711680
0.338993 0.0699183 0.0584003 16711680
0.338945 0.0705885 0.0583344 16711680
0.338664 0.0712102 0.057981 16711680
0.338302 0.0718154 0.0575275 16711680
0.338188 0.0724723 0.0573807 16711680
0.337697 0.0730516 0.0567677 16711680
0.337614 0.0737153 0.0566592 16711680
0.337288 0.0743292 0.05625 16711680
0.336972 0.0749457 0.0558536 16711680
0.336997 0.0756316 0.0558773 16711680
0.341352 0.0771944 0.0612466 16711680
0.341441 0.07789 0.0613497 16711680
0.34109 0.0784969 0.0609095 16711680
0.341013 0.0791591 0.0608078 16711680
0.340804 0.0797951 0.0605439 16711680
0.340388 0.08039 0.0600237 16711680
0.340226 0.0810358 0.0598172 16711680
0.339929 0.081655 0.059444 16711680
0.339803 0.0823082 0.0592812 16711680
0.33987 0.0829994 0.0593576 16711680
0.343357 0.0843585 0.0636547 16711680
0.34452 0.0852603 0.0650846 16711680
0.343681 0.085772 0.0640422 16711680
0.34414 0.0865356 0.0646019 16711680
0.345097 0.0873944 0.0657769 16711680
0.344295 0.0879143 0.0647807 16711680
0.343647 0.0884646 0.063974 16711680
0.343524 0.0891159 0.0638163 16711680
0.343434 0.0897733 0.0636981 16711680
0.343528 0.0904657 0.0638077 16711680
0.344742 0.0913686 0.0652992 16711680
0.348067 0.0926658 0.0693978 16711680
0.347535 0.0932372 0.0687336 16711680
0.34687 0.0937848 0.0679069 16711680
0.346422 0.0943734 0.0673473 16711680
0.346283 0.0950197 0.0671698 16711680
0.345703 0.0955848 0.0664463 16711680
0.345201 0.0961651 0.0658203 16711680
0.345387 0.0968715 0.0660434 16711680
0.344923 0.0974596 0.0654649 16711680
0.345137 0.0981709 0.0657226 16711680
0.345171 0.0988492 0.0657576 16711680
0.34568 0.0996129 0.0663794 16711680
0.345913 0.100326 0.0666605 16711680
0.346152 0.101041 0.0669495 16711680
0.352002 0.102751 0.0741644 16711680
0.35212 0.103439 0.0743034 16711680
0.35144 0.103986 0.0734577 16711680
0.350618 0.104509 0.0724366 16711680
0.349938 0.105058 0.0715905 16711680
0.349761 0.105695 0.071366 16711680
0.349282 0.10628 0.0707678 16711680
0.348517 0.106816 0.0698172 16711680
0.347939 0.107386 0.0690969 16711680
0.347632 0.108002 0.0687109 16711680
0.347237 0.108604 0.068217 16711680
0.346411 0.109134 0.0671917 16711680
0.345883 0.109714 0.0665327 16711680
0.345416 0.110306 0.0659497 16711680
0.344856 0.110883 0.0652527 16711680
0.331675 0.0490273 0.0484717 16711680
0.329777 0.0492811 0.0461205 16711680
0.328612 0.0497049 0.044675 16711680
0.327422 0.0501247 0.0431991 16711680
0.326599 0.0506292 0.042176 16711680
0.325948 0.0511737 0.041365 16711680
0.326369 0.0519607 0.0418785 16711680
0.327757 0.0529643 0.0435859 16711680
0.329622 0.0540728 0.0458832 16711680
0.330657 0.0549931 0.0471553 16711680
0.331183 0.0557984 0.0477974 16711680
0.331293 0.0565109 0.0479279 16711680
0.331422 0.0572271 0.0480802 16711680
0.340151 0.061201 0.0588419 16711680
0.340058 0.0618616 0.0587199 16711680
0.34029 0.0625932 0.0590006 16711680
0.340093 0.0632312 0.0587509 16711680
0.34028 0.0639524 0.0589751 16711680
0.340093 0.0645925 0.058737 16711680
0.34026 0.065309 0.0589368 16711680
0.340388 0.0660168 0.0590885 16711680
0.340338 0.0666864 0.059021 16711680
0.340363 0.0673718 0.0590448 16711680
0.340194 0.0680159 0.0588291 16711680
0.339884 0.0686307 0.0584403 16711680
0.339843 0.0693023 0.0583837 16711680
0.339417 0.0698929 0.0578498 16711680
0.339332 0.0705555 0.0577385 16711680
0.339037 0.0711745 0.0573683 16711680
0.338739 0.0717929 0.056993 16711680
0.338623 0.0724495 0.0568436 16711680
0.338182 0.0730392 0.0562927 16711680
0.337926 0.0736674 0.05597 16711680
0.337744 0.0743109 0.0557381 16711680
0.337473 0.0749365 0.0553969 16711680
0.337894 0.0757031 0.0559106 16711680
0.342255 0.0772671 0.0612906 16711680
0.341896 0.0778721 0.0608417 16711680
0.341621 0.0784944 0.0604951 16711680
0.341525 0.0791527 0.0603696 16711680
0.341294 0.0797843 0.0600783 16711680
0.34082 0.0803676 0.0594858 16711680
0.340532 0.0809885 0.0591239 16711680
0.340364 0.0816333 0.0589094 16711680
0.340135 0.0822663 0.0586201 16711680
0.340365 0.0829896 0.0588975 16711680
0.345727 0.0847158 0.0655158 16711680
0.345185 0.0852842 0.0648397 16711680
0.344549 0.0858351 0.0640475 16711680
0.345404 0.0866751 0.0650972 16711680
0.345583 0.0873836 0.0653121 16711680
0.344782 0.0879036 0.0643157 16711680
0.344194 0.0884654 0.0635827 16711680
0.344117 0.0891254 0.0634819 16711680
0.344017 0.0897808 0.0633509 16711680
0.344395 0.090527 0.0638123 16711680
0.348335 0.0919433 0.0686735 16711680
0.348683 0.0926798 0.0690963 16711680
0.348035 0.0932296 0.0682894 16711680
0.347478 0.0937971 0.0675946 16711680
0.347189 0.0944153 0.0672319 16711680
0.34695 0.0950428 0.0669297 16711680
0.346381 0.09561 0.0662211 16711680
0.346216 0.0962518 0.0660106 16711680
0.346153 0.0969125 0.0659267 16711680
0.345722 0.0975061 0.0653874 16711680
0.34599 0.0982271 0.0657117 16711680
0.346244 0.0989451 0.0660199 16711680
0.346372 0.0996399 0.0661715 16711680
0.346901 0.100406 0.0668178 16711680
0.351534 0.101904 0.0725362 16711680
0.352891 0.102813 0.074206 16711680
0.35237 0.103388 0.0735563 16711680
0.351846 0.103962 0.0729028 16711680
0.351128 0.104503 0.0720092 16711680
0.350463 0.105055 0.0711802 16711680
0.350233 0.105683 0.0708905 16711680
0.349769 0.106271 0.0703101 16711680
0.349053 0.106815 0.0694191 16711680
0.348644 0.107414 0.0689074 16711680
0.348259 0.108017 0.068426 16711680
0.347764 0.108602 0.0678084 16711680
0.346897 0.109124 0.0667304 16711680
0.346305 0.109694 0.065992 16711680
0.346011 0.110315 0.065622 16711680
0.345376 0.110879 0.0648314 16711680
0.332691 0.0491347 0.0486423 16711680
0.331554 0.0495624 0.0472301 16711680
0.330411 0.0499903 0.0458114 16711680
0.329941 0.0505727 0.045223 16711680
0.32999 0.0512738 0.0452776 16711680
0.33023 0.0520178 0.0455675 16711680
0.331009 0.0528829 0.046524 16711680
0.33133 0.0536438 0.0469137 16711680
0.331529 0.0543768 0.0471531 16711680
0.331637 0.0550893 0.0472806 16711680
0.331948 0.0558465 0.0476578 16711680
0.331812 0.0565041 0.0474836 16711680
0.331829 0.0571955 0.0474979 16711680
0.331508 0.0578125 0.0470955 16711680
0.340529 0.0611646 0.0582346 16711680
0.340146 0.061762 0.057754 16711680
0.340307 0.0624784 0.0579469 16711680
0.34032 0.0631622 0.0579561 16711680
0.340629 0.0639102 0.0583326 16711680
0.340325 0.0645252 0.0579495 16711680
0.34049 0.0652415 0.0581474 16711680
0.340481 0.0659203 0.0581304 16711680
0.340589 0.0666238 0.0582569 16711680
0.3404 0.0672639 0.0580169 16711680
0.340485 0.0679623 0.0581151 16711680
0.340133 0.0685683 0.0576745 16711680
0.340168 0.0692559 0.0577103 16711680
0.339813 0.0698618 0.0572656 16711680
0.339786 0.0705366 0.0572262 16711680
0.33952 0.0711616 0.0568907 16711680
0.339224 0.0717804 0.0565177 16711680
0.339031 0.072421 0.0562723 16711680
0.338601 0.0730131 0.0557349 16711680
0.33841 0.0736546 0.0554922 16711680
0.338264 0.0743056 0.0553054 16711680
0.33802 0.0749367 0.0549974 16711680
0.340153 0.0760516 0.0576282 16711680
0.343481 0.0774056 0.0617367 16711680
0.342515 0.0778873 0.0605357 16711680
0.342147 0.0784907 0.0600736 16711680
0.342133 0.0791655 0.0600497 16711680
0.341772 0.079771 0.0595975 16711680
0.341253 0.0803455 0.0589494 16711680
0.341015 0.0809761 0.0586481 16711680
0.340842 0.0816201 0.0584279 16711680
0.340894 0.0823085 0.0584857 16711680
0.345725 0.0839349 0.0644537 16711680
0.346283 0.0847185 0.065137 16711680
0.345769 0.0852923 0.0644947 16711680
0.345833 0.0859791 0.064568 16711680
0.346281 0.0867399 0.0651152 16711680
0.346022 0.0873638 0.0647893 16711680
0.345296 0.087898 0.0638841 16711680
0.34478 0.0884736 0.0632399 16711680
0.344923 0.0891755 0.0634106 16711680
0.344759 0.0898188 0.063202 16711680
0.346937 0.0909051 0.0658883 16711680
0.34939 0.0920401 0.0689148 16711680
0.349082 0.0926533 0.0685285 16711680
0.348592 0.0932327 0.0679162 16711680
0.348133 0.0938184 0.0673418 16711680
0.348054 0.0944753 0.0672375 16711680
0.34757 0.0950574 0.0666333 16711680
0.346996 0.0956233 0.0659168 16711680
0.346945 0.0962862 0.065848 16711680
0.346774 0.0969267 0.0656291 16711680
0.346683 0.0975823 0.0655105 16711680
0.346792 0.0982741 0.0656389 16711680
0.347133 0.0990077 0.0660546 16711680
0.347126 0.0996778 0.0660388 16711680
0.349417 0.10076 0.0688658 16711680
0.353853 0.102222 0.0743463 16711680
0.353263 0.102783 0.0736097 16711680
0.352712 0.103353 0.0729223 16711680
0.352345 0.103955 0.0724626 16711680
0.351623 0.104496 0.0715631 16711680
0.351012 0.105056 0.0708011 16711680
0.350787 0.105685 0.0705171 16711680
0.350374 0.106282 0.0699997 16711680
0.349598 0.106816 0.0690337 16711680
0.349176 0.107412 0.0685052 16711680
0.348878 0.10803 0.0681307 16711680
0.34836 0.108611 0.067484 16711680
0.347514 0.109137 0.0664307 16711680
0.346853 0.109695 0.0656065 16711680
0.346471 0.110301 0.0651287 16711680
0.335008 0.0488545 0.0504299 16711680
0.334121 0.0493375 0.0493263 16711680
0.333049 0.0497793 0.0479935 16711680
0.332751 0.0503994 0.0476187 16711680
0.332135 0.0509474 0.04685 16711680
0.331898 0.0515822 0.04655 16711680
0.331926 0.0522773 0.0465785 16711680
0.331907 0.0529615 0.0465477 16711680
0.331867 0.053641 0.0464917 16711680
0.331791 0.0543125 0.0463914 16711680
0.33188 0.0550208 0.0464954 16711680
0.331856 0.0557037 0.0464591 16711680
0.331924 0.0564072 0.0465375 16711680
0.33191 0.0570919 0.0465127 16711680
0.331851 0.057767 0.0464338 16711680
0.331427 0.0583616 0.0459028 16711680
0.339617 0.0622095 0.0560173 16711680
0.340342 0.0630488 0.0569078 16711680
0.340437 0.0637509 0.0570197 16711680
0.340534 0.0644531 0.0571339 16711680
0.340551 0.0651377 0.0571481 16711680
0.340614 0.0658321 0.0572193 16711680
0.340783 0.0665489 0.0574218 16711680
0.340549 0.0671798 0.0571263 16711680
0.340682 0.0678886 0.0572841 16711680
0.340422 0.0685142 0.0569565 16711680
0.340393 0.0691887 0.0569148 16711680
0.340179 0.0698242 0.0566427 16711680
0.340154 0.0704995 0.0566053 16711680
0.339973 0.0711423 0.0563756 16711680
0.339494 0.0717233 0.0557766 16711680
0.339424 0.0723896 0.0556834 16711680
0.339103 0.073004 0.0552797 16711680
0.33892 0.0736472 0.0550466 16711680
0.338811 0.0743059 0.054906 16711680
0.338544 0.0749321 0.0545684 16711680
0.340699 0.0760518 0.0572295 16711680
0.344521 0.0775062 0.0619524 16711680
0.343472 0.0779707 0.0606477 16711680
0.342849 0.0785225 0.0598706 16711680
0.342705 0.0791712 0.0596861 16711680
0.342379 0.0797837 0.0592771 16711680
0.341774 0.0803408 0.0585215 16711680
0.341771 0.0810183 0.0585116 16711680
0.342029 0.0817472 0.0588245 16711680
0.346171 0.0832415 0.0639447 16711680
0.346691 0.0840183 0.0645822 16711680
0.346633 0.084681 0.0645037 16711680
0.346377 0.0853052 0.0641804 16711680
0.347 0.0861005 0.0649455 16711680
0.346895 0.0867539 0.0648091 16711680
0.346434 0.0873386 0.0642314 16711680
0.345847 0.0878998 0.0634992 16711680
0.345398 0.0884881 0.0629375 16711680
0.345587 0.0891987 0.0631654 16711680
0.346214 0.089992 0.0639346 16711680
0.350312 0.0914415 0.0690002 16711680
0.349955 0.0920448 0.0685517 16711680
0.34947 0.0926247 0.0679462 16711680
0.349236 0.0932519 0.0676492 16711680
0.348805 0.0938428 0.0671095 16711680
0.348575 0.0944715 0.0668187 16711680
0.348176 0.0950692 0.0663189 16711680
0.347709 0.0956548 0.0657341 16711680
0.347754 0.0963351 0.0657839 16711680
0.347476 0.0969561 0.065434 16711680
0.347434 0.0976204 0.0653756 16711680
0.347601 0.0983225 0.0655754 16711680
0.348108 0.099086 0.0661976 16711680
0.34851 0.0998295 0.0666884 16711680
0.354771 0.101623 0.074432 16711680
0.354322 0.102209 0.0738703 16711680
0.353564 0.102741 0.0729252 16711680
0.353092 0.103324 0.072335 16711680
0.352858 0.10395 0.0720394 16711680
0.352132 0.10449 0.0711348 16711680
0.351507 0.105048 0.0703543 16711680
0.351312 0.105683 0.0701069 16711680
0.350899 0.106279 0.0695895 16711680
0.35016 0.10682 0.0686687 16711680
0.349792 0.107425 0.0682069 16711680
0.349496 0.108043 0.0678344 16711680
0.34889 0.108609 0.0670772 16711680
0.348173 0.109156 0.0661833 16711680
0.347424 0.109699 0.06525 16711680
0.335351 0.0494945 0.0497645 16711680
0.334667 0.0500246 0.0489112 16711680
0.333536 0.0504534 0.0475041 16711680
0.332715 0.0509543 0.0464803 16711680
0.332336 0.0515569 0.0460054 16711680
0.332303 0.0522383 0.0459584 16711680
0.332003 0.0528593 0.0455804 16711680
0.332112 0.0535726 0.0457085 16711680
0.331853 0.0542031 0.0453811 16711680
0.332024 0.0549301 0.0455866 16711680
0.331912 0.0555939 0.0454422 16711680
0.332099 0.0563239 0.0456669 16711680
0.331958 0.0569808 0.0454854 16711680
0.33213 0.0577073 0.0456928 16711680
0.331847 0.0583331 0.0453359 16711680
0.340746 0.0616551 0.0563442 16711680
0.339659 0.0620999 0.054992 16711680
0.339842 0.062822 0.0552126 16711680
0.34033 0.0636098 0.0558106 16711680
0.340643 0.064359 0.0561922 16711680
0.340577 0.0650262 0.0561041 16711680
0.340749 0.0657443 0.0563102 16711680
0.340731 0.0664216 0.056282 16711680
0.340772 0.0671113 0.0563262 16711680
0.340632 0.0677625 0.056147 16711680
0.340624 0.0684416 0.0561303 16711680
0.340491 0.0690944 0.055959 16711680
0.340532 0.0697838 0.0560038 16711680
0.34055 0.0704683 0.0560198 16711680
0.340347 0.0711065 0.0557621 16711680
0.339927 0.0716998 0.0552353 16711680
0.339792 0.0723529 0.0550629 16711680
0.339577 0.0729893 0.0547898 16711680
0.339419 0.0736377 0.0545881 16711680
0.339356 0.0743056 0.0545033 16711680
0.339126 0.0749394 0.0542117 16711680
0.341137 0.07603 0.0566967 16711680
0.345527 0.0776003 0.0621283 16711680
0.344989 0.0781678 0.061456 16711680
0.344872 0.0788207 0.0613049 16711680
0.344418 0.079406 0.0607361 16711680
0.344065 0.0800121 0.0602927 16711680
0.344293 0.0807343 0.060568 16711680
0.345472 0.0816453 0.0620229 16711680
0.347057 0.0826348 0.0639805 16711680
0.34732 0.0833612 0.0643001 16711680
0.347134 0.0839988 0.0640632 16711680
0.347233 0.0846924 0.0641794 16711680
0.347606 0.0854392 0.0646347 16711680
0.347834 0.0861572 0.0649109 16711680
0.347343 0.0867357 0.0642968 16711680
0.347027 0.0873484 0.0638989 16711680
0.346484 0.087918 0.063221 16711680
0.346037 0.0885066 0.0626607 16711680
0.346296 0.0892303 0.0629749 16711680
0.350024 0.0906133 0.0675873 16711680
0.351151 0.0914981 0.0689769 16711680
0.350346 0.0920166 0.0679733 16711680
0.349986 0.09262 0.067521 16711680
0.349826 0.0932611 0.0673163 16711680
0.349455 0.0938632 0.066851 16711680
0.349327 0.0945107 0.066686 16711680
0.348826 0.0950893 0.0660597 16711680
0.348436 0.095689 0.0655701 16711680
0.348392 0.0963527 0.0655088 16711680
0.348092 0.0969696 0.0651314 16711680
0.348381 0.0976941 0.065483 16711680
0.348388 0.098367 0.0654857 16711680
0.348886 0.0991286 0.0660965 16711680
0.354788 0.100863 0.0734019 16711680
0.355348 0.10163 0.0740907 16711680
0.354704 0.102181 0.0732857 16711680
0.353928 0.10271 0.0723191 16711680
0.353521 0.103305 0.0718087 16711680
0.353382 0.103948 0.0716298 16711680
0.352716 0.104498 0.0707985 16711680
0.35204 0.105047 0.0699545 16711680
0.351871 0.105686 0.069739 16711680
0.351369 0.106267 0.0691109 16711680
0.350655 0.106812 0.0682201 16711680
0.350414 0.107439 0.0679163 16711680
0.35005 0.108045 0.067458 16711680
0.349382 0.1086 0.0666251 16711680
0.348645 0.109144 0.0657059 16711680
0.347978 0.109701 0.0648732 16711680
0.336673 0.0496727 0.050318 16711680
0.335365 0.0500591 0.0486909 16711680
0.334187 0.0504767 0.0472238 16711680
0.333276 0.0509571 0.0460886 16711680
0.332754 0.051527 0.045435 16711680
0.332646 0.0521914 0.0452951 16711680
0.332222 0.0527846 0.0447634 16711680
0.332161 0.0534599 0.0446814 16711680
0.332064 0.0541272 0.0445552 16711680
0.332078 0.0548194 0.0445663 16711680
0.332086 0.05551 0.0445698 16711680
0.332139 0.0562107 0.0446292 16711680
0.33224 0.0569218 0.0447483 16711680
0.33259 0.0576874 0.0451752 16711680
0.33242 0.0583383 0.0449586 16711680
0.332585 0.0590625 0.0451562 16711680
0.337066 0.0607309 0.0507048 16711680
0.338919 0.0618197 0.0529963 16711680
0.339044 0.06253 0.0531442 16711680
0.340017 0.0634239 0.0543443 16711680
0.340635 0.0642397 0.0551052 16711680
0.340584 0.0649104 0.0550348 16711680
0.340824 0.0656435 0.0553259 16711680
0.340596 0.0662763 0.0550379 16711680
0.340882 0.0670186 0.0553856 16711680
0.340677 0.0676564 0.0551257 16711680
0.340952 0.0683958 0.0554602 16711680
0.340763 0.0690369 0.0552197 16711680
0.340687 0.069702 0.0551198 16711680
0.340608 0.0703662 0.0550145 16711680
0.340739 0.0710747 0.0551718 16711680
0.340341 0.0716726 0.054672 16711680
0.340206 0.0723255 0.0544978 16711680
0.340105 0.0729855 0.0543665 16711680
0.340034 0.0736519 0.0542723 16711680
0.339917 0.0743087 0.0541211 16711680
0.339712 0.0749477 0.0538608 16711680
0.340161 0.0757201 0.0544115 16711680
0.346264 0.0776398 0.0619717 16711680
0.34639 0.0783415 0.062122 16711680
0.3462 0.0789791 0.0618805 16711680
0.346811 0.0797776 0.0626307 16711680
0.347115 0.0805138 0.0630015 16711680
0.347302 0.0812263 0.0632278 16711680
0.347825 0.0820052 0.0638704 16711680
0.347778 0.0826702 0.0638052 16711680
0.347764 0.0833419 0.0637822 16711680
0.347641 0.0839919 0.0636234 16711680
0.348214 0.0847785 0.064328 16711680
0.348912 0.0855885 0.0651872 16711680
0.348323 0.0861472 0.0644509 16711680
0.347711 0.086702 0.0636853 16711680
0.347501 0.0873353 0.0634185 16711680
0.346973 0.0879078 0.0627587 16711680
0.346773 0.0885436 0.0625039 16711680
0.348664 0.0895789 0.0648423 16711680
0.352115 0.0909083 0.069116 16711680
0.351635 0.0914874 0.0685138 16711680
0.350858 0.0920113 0.0675442 16711680
0.350616 0.0926369 0.0672388 16711680
0.350396 0.0932667 0.0669594 16711680
0.349949 0.0938543 0.0663986 16711680
0.349896 0.0945159 0.0663271 16711680
0.349498 0.0951135 0.0658276 16711680
0.349172 0.0957249 0.0654173 16711680
0.349068 0.0963775 0.0652825 16711680
0.348831 0.0970056 0.0649816 16711680
0.349132 0.0977324 0.0653499 16711680
0.349444 0.0984605 0.0657301 16711680
0.35361 0.0998856 0.0708905 16711680
0.356034 0.100991 0.0738891 16711680
0.355698 0.101597 0.0734673 16711680
0.355189 0.102172 0.0728291 16711680
0.354421 0.102702 0.0718718 16711680
0.354109 0.103314 0.0714779 16711680
0.35388 0.10394 0.0711879 16711680
0.353222 0.104492 0.0703667 16711680
0.352604 0.105051 0.0695943 16711680
0.352376 0.10568 0.0693051 16711680
0.351978 0.106279 0.0688047 16711680
0.351184 0.10681 0.0678142 16711680
0.350837 0.107419 0.0673784 16711680
0.350511 0.108032 0.066968 16711680
0.349912 0.108598 0.0662192 16711680
0.349253 0.109156 0.0653958 16711680
0.338055 0.0491791 0.0509545 16711680
0.33728 0.0496865 0.0499865 16711680
0.336098 0.0501016 0.0485145 16711680
0.334908 0.0505164 0.0470319 16711680
0.333953 0.0509863 0.0458401 16711680
0.333291 0.0515242 0.0450126 16711680
0.332895 0.0521234 0.0445158 16711680
0.332687 0.0527653 0.0442506 16711680
0.33251 0.0534147 0.0440252 16711680
0.332481 0.0540972 0.0439825 16711680
0.332384 0.0547648 0.043857 16711680
0.332488 0.0554769 0.0439788 16711680
0.332744 0.0562228 0.0442904 16711680
0.332873 0.0569401 0.0444443 16711680
0.333223 0.0577058 0.0448722 16711680
0.33321 0.0583912 0.0448502 16711680
0.335198 0.0595157 0.0473104 16711680
0.338796 0.0609898 0.0517685 16711680
0.338607 0.0616324 0.0515277 16711680
0.338823 0.0623633 0.0517899 16711680
0.33947 0.0631872 0.052587 16711680
0.340098 0.0640059 0.0533595 16711680
0.340483 0.0647713 0.0538313 16711680
0.340503 0.0654576 0.0538495 16711680
0.340769 0.0661966 0.0541734 16711680
0.34081 0.0668873 0.0542192 16711680
0.340884 0.0675845 0.0543041 16711680
0.34145 0.0683859 0.0550007 16711680
0.34133 0.0690416 0.0548457 16711680
0.341039 0.0696612 0.0544778 16711680
0.340885 0.0703101 0.0542805 16711680
0.341015 0.0710184 0.0544361 16711680
0.340864 0.0716678 0.054242 16711680
0.340767 0.0723287 0.054116 16711680
0.340647 0.0729848 0.0539613 16711680
0.340587 0.0736534 0.0538807 16711680
0.340483 0.0743128 0.0537447 16711680
0.340418 0.0749804 0.0536581 16711680
0.340577 0.0756938 0.0538501 16711680
0.345027 0.0772783 0.0593655 16711680
0.346881 0.0783311 0.0616608 16711680
0.346907 0.0790123 0.061687 16711680
0.34755 0.0798174 0.0624788 16711680
0.347851 0.0805529 0.0628462 16711680
0.347932 0.0812439 0.0629398 16711680
0.348276 0.0819872 0.0633609 16711680
0.348156 0.0826378 0.0632056 16711680
0.348286 0.083338 0.0633613 16711680
0.349224 0.0841969 0.0645195 16711680
0.349659 0.0849557 0.0650535 16711680
0.34944 0.0855858 0.0647746 16711680
0.348787 0.086132 0.0639583 16711680
0.348219 0.0866955 0.0632479 16711680
0.348069 0.0873404 0.0630553 16711680
0.347697 0.0879428 0.0625882 16711680
0.348125 0.0886988 0.0631129 16711680
0.352637 0.0902345 0.068706 16711680
0.35252 0.0908827 0.0685557 16711680
0.352006 0.0914556 0.0679116 16711680
0.351387 0.0920093 0.0671375 16711680
0.351261 0.0926565 0.0669742 16711680
0.350948 0.0932688 0.0665796 16711680
0.350589 0.0938729 0.0661284 16711680
0.35054 0.0945351 0.066061 16711680
0.350173 0.0951382 0.0655993 16711680
0.349938 0.0957665 0.0653026 16711680
0.349777 0.0964082 0.0650964 16711680
0.349694 0.0970646 0.0649878 16711680
0.350018 0.0977951 0.0653828 16711680
0.351696 0.0987714 0.0674595 16711680
0.356945 0.100392 0.073969 16711680
0.356458 0.10097 0.0733588 16711680
0.355966 0.101548 0.0727419 16711680
0.355623 0.102153 0.0723104 16711680
0.354891 0.10269 0.0713953 16711680
0.354576 0.103301 0.0709987 16711680
0.354366 0.103931 0.0707319 16711680
0.353694 0.10448 0.0698918 16711680
0.353161 0.105054 0.0692234 16711680
0.35288 0.105673 0.0688692 16711680
0.352503 0.106276 0.0683948 16711680
0.351758 0.106815 0.0674642 16711680
0.351363 0.107416 0.0669683 16711680
0.350981 0.108019 0.0664878 16711680
0.350383 0.108586 0.0657396 16711680
0.349734 0.109145 0.0649287 16711680
0.338859 0.0492386 0.0508685 16711680
0.337884 0.0496998 0.0496526 16711680
0.336754 0.0501265 0.0482428 16711680
0.335527 0.0505325 0.0467128 16711680
0.334491 0.0509838 0.0454196 16711680
0.333922 0.0515428 0.0447069 16711680
0.333521 0.0521408 0.0442035 16711680
0.333206 0.0527584 0.0438052 16711680
0.333031 0.0534082 0.0435823 16711680
0.333056 0.054103 0.043607 16711680
0.333008 0.0547813 0.0435412 16711680
0.333144 0.0555008 0.0437045 16711680
0.333584 0.0562874 0.0442439 16711680
0.333711 0.0570042 0.0443963 16711680
0.334071 0.0577719 0.0448368 16711680
0.335823 0.058846 0.0470062 16711680
0.339318 0.0603006 0.0513412 16711680
0.339397 0.0610019 0.0514336 16711680
0.338891 0.0615753 0.0507991 16711680
0.338711 0.0622202 0.0505695 16711680
0.338932 0.0629521 0.0508374 16711680
0.339881 0.0638409 0.0520092 16711680
0.340436 0.0646436 0.0526925 16711680
0.340426 0.0653241 0.0526745 16711680
0.340797 0.066086 0.0531296 16711680
0.340492 0.066703 0.0527444 16711680
0.340854 0.0674622 0.0531876 16711680
0.341565 0.0682948 0.0540651 16711680
0.341881 0.0690428 0.0544517 16711680
0.341697 0.0696851 0.054217 16711680
0.341143 0.0702499 0.0535228 16711680
0.341109 0.0709241 0.0534747 16711680
0.341348 0.071655 0.0537647 16711680
0.34136 0.0723385 0.0537733 16711680
0.341204 0.0729872 0.0535742 16711680
0.341206 0.0736685 0.0535707 16711680
0.341149 0.0743376 0.053494 16711680
0.3414 0.0750697 0.0537987 16711680
0.341416 0.0757535 0.0538133 16711680
0.342621 0.0766788 0.0553035 16711680
0.345824 0.0780071 0.0592762 16711680
0.346824 0.0788859 0.0605118 16711680
0.347389 0.0796759 0.0612079 16711680
0.347506 0.080375 0.0613469 16711680
0.348077 0.0811648 0.0620507 16711680
0.348778 0.0819793 0.062915 16711680
0.348728 0.0826439 0.0628471 16711680
0.349351 0.0834415 0.0636153 16711680
0.350395 0.0843208 0.0649058 16711680
0.350161 0.0849479 0.0646089 16711680
0.349777 0.085546 0.0641255 16711680
0.349215 0.08611 0.063422 16711680
0.348751 0.0866935 0.0628392 16711680
0.34863 0.0873441 0.0626831 16711680
0.348722 0.0880357 0.0627919 16711680
0.353246 0.0895774 0.0684049 16711680
0.353191 0.0902372 0.0683304 16711680
0.352915 0.0908552 0.0679822 16711680
0.352506 0.0914479 0.0674677 16711680
0.351993 0.0920216 0.0668243 16711680
0.351778 0.0926522 0.0665519 16711680
0.351504 0.0932717 0.0662054 16711680
0.351189 0.093884 0.0658083 16711680
0.351178 0.0945532 0.0657883 16711680
0.350716 0.0951387 0.0652084 16711680
0.350605 0.0957895 0.0650643 16711680
0.350527 0.0964467 0.064962 16711680
0.35072 0.0971534 0.0651958 16711680
0.357438 0.100384 0.0735232 16711680
0.356713 0.100919 0.0726168 16711680
0.356322 0.101515 0.0721248 16711680
0.356065 0.102136 0.0718004 16711680
0.355417 0.102687 0.0709895 16711680
0.355066 0.103292 0.0705464 16711680
0.354814 0.103915 0.0702277 16711680
0.354156 0.104466 0.069405 16711680
0.353595 0.105036 0.0687011 16711680
0.353392 0.105668 0.0684439 16711680
0.353017 0.106271 0.0679712 16711680
0.352282 0.106812 0.0670526 16711680
0.351883 0.107412 0.066551 16711680
0.351384 0.107995 0.0659248 16711680
0.350774 0.10856 0.0651615 16711680
0.350102 0.109115 0.0643207 16711680
0.348921 0.109585 0.062847 16711680
0.339364 0.0492293 0.0504127 16711680
0.338461 0.0497066 0.0492833 16711680
0.337451 0.0501608 0.0480223 16711680
0.336506 0.0506312 0.0468413 16711680
0.335377 0.0510608 0.0454315 16711680
0.334832 0.0516251 0.0447493 16711680
0.334183 0.0521663 0.043936 16711680
0.333774 0.0527626 0.0434209 16711680
0.333677 0.0534298 0.0432942 16711680
0.333654 0.0541139 0.0432602 16711680
0.33384 0.0548445 0.0434848 16711680
0.333824 0.0555298 0.0434591 16711680
0.334441 0.056356 0.04422 16711680
0.334861 0.0571374 0.0447358 16711680
0.337473 0.0584033 0.0479771 16711680
0.340153 0.0596803 0.0513023 16711680
0.340017 0.0603342 0.051127 16711680
0.339749 0.0609594 0.0507886 16711680
0.339244 0.061533 0.0501548 16711680
0.33898 0.0621595 0.0498197 16711680
0.339105 0.062871 0.0499693 16711680
0.339288 0.0635946 0.0501907 16711680
0.339902 0.0644109 0.0509478 16711680
0.340588 0.0652416 0.0517946 16711680
0.34084 0.0659782 0.0521015 16711680
0.34067 0.0666246 0.0518852 16711680
0.340858 0.0673469 0.052112 16711680
0.341223 0.0681066 0.0525599 16711680
0.342549 0.0690687 0.0542023 16711680
0.34238 0.069714 0.053986 16711680
0.341804 0.0702741 0.0532647 16711680
0.341426 0.0708762 0.0527884 16711680
0.341882 0.0716527 0.0533494 16711680
0.34194 0.0723457 0.0534151 16711680
0.341778 0.0729932 0.0532088 16711680
0.341978 0.0737153 0.0534512 16711680
0.341974 0.0743951 0.0534401 16711680
0.342465 0.0751762 0.0540446 16711680
0.342844 0.0759336 0.0545092 16711680
0.343294 0.0767048 0.0550627 16711680
0.344734 0.0776761 0.0568471 16711680
0.346063 0.0786228 0.058494 16711680
0.346301 0.0793478 0.0587837 16711680
0.347188 0.0802027 0.0598806 16711680
0.348116 0.0810643 0.0610286 16711680
0.349472 0.0820096 0.0627074 16711680
0.350902 0.0829678 0.0644798 16711680
0.351316 0.0837229 0.0649892 16711680
0.350963 0.0843261 0.0645434 16711680
0.350438 0.0848961 0.0638846 16711680
0.350199 0.0855228 0.0635822 16711680
0.349808 0.0861201 0.0630907 16711680
0.349304 0.0866959 0.0624582 16711680
0.349502 0.0874079 0.0626978 16711680
0.353534 0.0888586 0.0677053 16711680
0.353984 0.0896155 0.0682578 16711680
0.353522 0.0901975 0.0676786 16711680
0.353301 0.0908259 0.0673981 16711680
0.35307 0.0914526 0.0671045 16711680
0.352629 0.0920397 0.0665497 16711680
0.352464 0.0926796 0.0663394 16711680
0.352123 0.0932865 0.0659093 16711680
0.351826 0.0939021 0.0655346 16711680
0.351706 0.0945509 0.0653794 16711680
0.35136 0.0951578 0.0649427 16711680
0.351431 0.0958422 0.0650249 16711680
0.351353 0.096499 0.0649219 16711680
0.358377 0.0997906 0.073638 16711680
0.357784 0.100349 0.0728953 16711680
0.357137 0.100898 0.0720849 16711680
0.356813 0.101507 0.0716757 16711680
0.356584 0.102133 0.0713855 16711680
0.355944 0.102685 0.0705832 16711680
0.355534 0.10328 0.0700686 16711680
0.355339 0.103912 0.0698191 16711680
0.354775 0.10448 0.0691129 16711680
0.354118 0.105033 0.0682894 16711680
0.353837 0.105652 0.0679345 16711680
0.353438 0.106251 0.0674322 16711680
0.352716 0.106794 0.0665283 16711680
0.352058 0.107349 0.0657042 16711680
0.351795 0.107973 0.0653716 16711680
0.351099 0.108523 0.0645008 16711680
0.350325 0.109061 0.0635318 16711680
0.340375 0.0493368 0.050585 16711680
0.339025 0.0497107 0.0488994 16711680
0.338002 0.0501616 0.0476201 16711680
0.337357 0.0507007 0.0468117 16711680
0.336373 0.0511631 0.0455816 16711680
0.335666 0.0516899 0.0446961 16711680
0.335036 0.0522352 0.0439063 16711680
0.334497 0.0528019 0.0432301 16711680
0.334591 0.0535121 0.0433406 16711680
0.334364 0.05415 0.0430529 16711680
0.334859 0.05495 0.0436627 16711680
0.334843 0.0556347 0.0436358 16711680
0.335532 0.0564767 0.0444875 16711680
0.33875 0.0578793 0.048485 16711680
0.340775 0.0590132 0.0509989 16711680
0.340755 0.0596926 0.0509679 16711680
0.340373 0.0602925 0.0504874 16711680
0.340104 0.0609172 0.0501457 16711680
0.339813 0.0615377 0.049778 16711680
0.339467 0.0621466 0.0493422 16711680
0.339425 0.0628218 0.0492839 16711680
0.339345 0.0634888 0.0491786 16711680
0.339767 0.0642639 0.0496968 16711680
0.340473 0.0650995 0.0505695 16711680
0.34071 0.0658336 0.0508591 16711680
0.341012 0.0665809 0.051228 16711680
0.340901 0.0672401 0.051085 16711680
0.341453 0.0680397 0.0517656 16711680
0.343884 0.0692358 0.0547847 16711680
0.343388 0.0698117 0.0541617 16711680
0.342679 0.0703433 0.0532733 16711680
0.342351 0.0709557 0.0528594 16711680
0.342473 0.0716622 0.0530046 16711680
0.342714 0.0723933 0.0532992 16711680
0.34252 0.0730338 0.0530518 16711680
0.343006 0.0738149 0.0536509 16711680
0.34334 0.0745638 0.0540603 16711680
0.343533 0.0752832 0.054294 16711680
0.344221 0.0761035 0.0551445 16711680
0.344667 0.0768734 0.0556935 16711680
0.345159 0.0776519 0.0562997 16711680
0.345942 0.0784886 0.0572686 16711680
0.346592 0.079297 0.058071 16711680
0.346757 0.0800073 0.0582712 16711680
0.34925 0.0811826 0.0613673 16711680
0.351647 0.0823351 0.0643442 16711680
0.35201 0.0830803 0.0647894 16711680
0.351942 0.0837398 0.0646995 16711680
0.351375 0.0843009 0.0639886 16711680
0.350874 0.0848755 0.0633581 16711680
0.350661 0.0855072 0.0630871 16711680
0.350389 0.0861277 0.0627432 16711680
0.350267 0.0867776 0.0625859 16711680
0.354087 0.0881904 0.0673341 16711680
0.354654 0.0889704 0.0680333 16711680
0.354386 0.0895892 0.0676941 16711680
0.353952 0.0901765 0.0671481 16711680
0.353788 0.0908159 0.0669388 16711680
0.353571 0.0914452 0.0666624 16711680
0.353164 0.0920389 0.0661505 16711680
0.353093 0.0926963 0.066056 16711680
0.352728 0.0932986 0.0655959 16711680
0.352426 0.0939132 0.0652145 16711680
0.352367 0.0945732 0.0651344 16711680
0.352057 0.0951867 0.0647428 16711680
0.352224 0.0958889 0.0649453 16711680
0.352245 0.0965638 0.064966 16711680
0.359056 0.0991506 0.0734303 16711680
0.358747 0.0997602 0.0730401 16711680
0.358169 0.100321 0.0723156 16711680
0.35757 0.10088 0.0715637 16711680
0.357244 0.101488 0.0711529 16711680
0.35709 0.102127 0.0709547 16711680
0.356445 0.102679 0.0701468 16711680
0.35605 0.103275 0.0696484 16711680
0.355798 0.103898 0.0693289 16711680
0.355247 0.104468 0.0686377 16711680
0.35461 0.105024 0.0678394 16711680
0.354356 0.105648 0.0675178 16711680
0.354 0.106254 0.0670683 16711680
0.353221 0.106787 0.0660925 16711680
0.352646 0.107357 0.0653715 16711680
0.352275 0.107962 0.0649036 16711680
0.34128 0.04942 0.050627 16711680
0.340019 0.049814 0.0490503 16711680
0.339471 0.0503739 0.0483624 16711680
0.338463 0.0508287 0.0471004 16711680
0.337429 0.0512794 0.0458078 16711680
0.336814 0.0518266 0.0450357 16711680
0.335958 0.0523199 0.0439634 16711680
0.335524 0.0529102 0.0434177 16711680
0.335611 0.0536184 0.0435196 16711680
0.335613 0.0543074 0.0435162 16711680
0.335883 0.0550563 0.0438465 16711680
0.336337 0.0558462 0.0444064 16711680
0.340149 0.057384 0.0491477 16711680
0.341474 0.0583633 0.0507915 16711680
0.341341 0.0590176 0.0506198 16711680
0.341216 0.059674 0.0504591 16711680
0.340724 0.0602493 0.0498396 16711680
0.340502 0.0608848 0.0495579 16711680
0.340293 0.0615232 0.0492915 16711680
0.340005 0.0621447 0.0489272 16711680
0.339999 0.0628276 0.0489136 16711680
0.339812 0.0634715 0.0486755 16711680
0.339975 0.064191 0.0488726 16711680
0.340348 0.0649552 0.0493311 16711680
0.340865 0.0657496 0.0499686 16711680
0.341381 0.0665431 0.0506054 16711680
0.341519 0.0672553 0.0507712 16711680
0.341867 0.0680117 0.0511987 16711680
0.345039 0.0693648 0.0551431 16711680
0.344563 0.0699444 0.0545446 16711680
0.343717 0.0704469 0.0534856 16711680
0.343113 0.0710009 0.0527267 16711680
0.343152 0.0716901 0.0527705 16711680
0.343662 0.072477 0.0533994 16711680
0.343585 0.0731413 0.0532972 16711680
0.343729 0.0738515 0.0534712 16711680
0.344437 0.0746774 0.0543472 16711680
0.344804 0.0754322 0.0547986 16711680
0.345308 0.0762143 0.0554198 16711680
0.345996 0.0770333 0.0562717 16711680
0.346404 0.0777942 0.0567738 16711680
0.346453 0.078482 0.0568295 16711680
0.347101 0.0792901 0.0576303 16711680
0.349588 0.0804664 0.0607214 16711680
0.352241 0.0816726 0.0640208 16711680
0.352843 0.0824657 0.064764 16711680
0.352518 0.0830739 0.0643538 16711680
0.352297 0.083703 0.0640726 16711680
0.351853 0.0842885 0.0635146 16711680
0.351348 0.0848625 0.0628797 16711680
0.351227 0.0855122 0.0627227 16711680
0.351059 0.0861529 0.0625085 16711680
0.354419 0.0874792 0.0666867 16711680
0.355344 0.0883293 0.0678329 16711680
0.354996 0.0889325 0.0673945 16711680
0.35482 0.089569 0.0671697 16711680
0.354452 0.090169 0.0667055 16711680
0.354287 0.090808 0.0664936 16711680
0.354086 0.0914405 0.066238 16711680
0.353709 0.0920398 0.0657625 16711680
0.353609 0.0926917 0.065632 16711680
0.35335 0.0933139 0.0653034 16711680
0.353096 0.0939374 0.0649823 16711680
0.353016 0.0945934 0.0648758 16711680
0.352782 0.095221 0.0645795 16711680
0.352929 0.0959192 0.0647559 16711680
0.3588 0.0976724 0.0720633 16711680
0.359899 0.0985408 0.0734268 16711680
0.359309 0.0990986 0.072686 16711680
0.358869 0.0996846 0.0721328 16711680
0.35858 0.100298 0.0717664 16711680
0.358093 0.100877 0.0711544 16711680
0.357682 0.10147 0.0706375 16711680
0.357514 0.102106 0.0704221 16711680
0.356909 0.102665 0.0696623 16711680
0.356515 0.103262 0.0691661 16711680
0.356302 0.103892 0.0688957 16711680
0.355718 0.104456 0.0681614 16711680
0.355111 0.105017 0.0673996 16711680
0.35487 0.105643 0.0670935 16711680
0.354432 0.106235 0.0665432 16711680
0.353748 0.106785 0.0656842 16711680
0.353056 0.107334 0.0648174 16711680
0.352204 0.107857 0.0637494 16711680
0.342794 0.0496444 0.0514287 16711680
0.341599 0.0500527 0.049933 16711680
0.34053 0.0504918 0.048595 16711680
0.339448 0.0509292 0.0472397 16711680
0.338606 0.0514232 0.046185 16711680
0.337773 0.0519202 0.0451404 16711680
0.337075 0.0524491 0.0442644 16711680
0.33695 0.0531088 0.0441031 16711680
0.336627 0.0537241 0.0436954 16711680
0.336993 0.0544945 0.0441451 16711680
0.337131 0.0552135 0.0443119 16711680
0.34095 0.0567559 0.0490658 16711680
0.342212 0.0577223 0.0506334 16711680
0.341993 0.0583572 0.0503539 16711680
0.341674 0.0589704 0.0499506 16711680
0.341578 0.0596331 0.049825 16711680
0.341224 0.0602391 0.0493779 16711680
0.340979 0.0608696 0.0490675 16711680
0.340814 0.0615175 0.0488553 16711680
0.340607 0.0621568 0.0485922 16711680
0.340617 0.0628432 0.048599 16711680
0.340432 0.0634873 0.0483624 16711680
0.340721 0.0642338 0.0487165 16711680
0.341132 0.0650063 0.0492234 16711680
0.341456 0.0657592 0.0496211 16711680
0.3421 0.0665801 0.0504179 16711680
0.342286 0.0673023 0.050644 16711680
0.342401 0.0680091 0.0507814 16711680
0.345729 0.0693957 0.0549242 16711680
0.345756 0.0700812 0.0549524 16711680
0.344756 0.0705508 0.0537007 16711680
0.344018 0.0710764 0.0527745 16711680
0.344069 0.0717678 0.052833 16711680
0.344504 0.0725389 0.0533694 16711680
0.344766 0.0732733 0.0536896 16711680
0.344655 0.0739303 0.0535456 16711680
0.345625 0.0748098 0.054749 16711680
0.346464 0.0756611 0.0557894 16711680
0.346764 0.0764008 0.0561571 16711680
0.347123 0.0771521 0.0565995 16711680
0.347564 0.0779193 0.0571426 16711680
0.347919 0.0786686 0.0575804 16711680
0.350351 0.0798359 0.0606062 16711680
0.352484 0.0809395 0.0632597 16711680
0.353479 0.0818123 0.0644947 16711680
0.353381 0.0824655 0.0643669 16711680
0.352834 0.0830294 0.0636785 16711680
0.352538 0.0836439 0.0633042 16711680
0.35231 0.0842721 0.0630144 16711680
0.35184 0.0848528 0.0624223 16711680
0.351819 0.0855222 0.0623909 16711680
0.354886 0.0867942 0.066209 16711680
0.356031 0.0876879 0.0676305 16711680
0.35577 0.0883075 0.0672994 16711680
0.355373 0.0889013 0.066799 16711680
0.355252 0.0895484 0.0666423 16711680
0.354907 0.0901528 0.0662063 16711680
0.354778 0.0907989 0.0660404 16711680
0.354564 0.0914288 0.0657673 16711680
0.354288 0.0920471 0.0654169 16711680
0.354208 0.0927029 0.0653121 16711680
0.35395 0.0933252 0.0649846 16711680
0.353785 0.0939651 0.0647731 16711680
0.353707 0.0946216 0.0646707 16711680
0.353685 0.0952883 0.0646367 16711680
0.356503 0.096481 0.0681452 16711680
0.360731 0.0979295 0.0734106 16711680
0.360301 0.0985161 0.0728691 16711680
0.359617 0.0990568 0.0720108 16711680
0.359128 0.0996338 0.0713949 16711680
0.359008 0.100278 0.0712396 16711680
0.358561 0.100864 0.0706768 16711680
0.3582 0.101466 0.0702212 16711680
0.358018 0.1021 0.0699885 16711680
0.35741 0.102658 0.0692245 16711680
0.356894 0.103234 0.0685762 16711680
0.356724 0.103871 0.0683588 16711680
0.356138 0.104435 0.0676227 16711680
0.355516 0.104994 0.0668406 16711680
0.355348 0.105633 0.066625 16711680
0.354831 0.106211 0.0659751 16711680
0.354146 0.10676 0.0651152 16711680
0.353484 0.107315 0.0642848 16711680
0.343279 0.0496304 0.0509486 16711680
0.341911 0.0499987 0.0492362 16711680
0.341664 0.0506271 0.0489217 16711680
0.340613 0.0510714 0.0476059 16711680
0.339552 0.0515144 0.0462757 16711680
0.338676 0.0520013 0.0451769 16711680
0.338292 0.0526013 0.0446924 16711680
0.337902 0.0532004 0.0441998 16711680
0.337629 0.0538265 0.0438541 16711680
0.338202 0.0546434 0.0445626 16711680
0.342115 0.05621 0.0494388 16711680
0.342735 0.0570334 0.050207 16711680
0.342601 0.0576872 0.0500332 16711680
0.342354 0.0583161 0.0497193 16711680
0.341964 0.0589136 0.0492272 16711680
0.34194 0.0595925 0.0491921 16711680
0.341699 0.0602235 0.0488858 16711680
0.341567 0.0608786 0.0487148 16711680
0.341462 0.0615399 0.0485787 16711680
0.341337 0.0621967 0.0484166 16711680
0.341333 0.06288 0.0484064 16711680
0.341405 0.0635795 0.0484897 16711680
0.341632 0.0643127 0.0487683 16711680
0.342367 0.0651544 0.0496787 16711680
0.342626 0.0658931 0.0499963 16711680
0.342859 0.0666257 0.0502815 16711680
0.343147 0.0673696 0.0506353 16711680
0.343293 0.0680828 0.0508114 16711680
0.346831 0.0695139 0.0552198 16711680
0.346923 0.0702127 0.0553291 16711680
0.346023 0.0707026 0.0542005 16711680
0.344931 0.0711536 0.052833 16711680
0.344651 0.0717754 0.0524771 16711680
0.345367 0.072605 0.0533645 16711680
0.346016 0.0734196 0.0541691 16711680
0.346519 0.074203 0.054791 16711680
0.347231 0.0750286 0.0556738 16711680
0.347525 0.0757674 0.0560356 16711680
0.347908 0.0765236 0.056507 16711680
0.348199 0.0772606 0.0568641 16711680
0.349204 0.0781421 0.0581125 16711680
0.352178 0.0794208 0.0618185 16711680
0.352828 0.0802262 0.0626235 16711680
0.354069 0.0811495 0.0641668 16711680
0.354101 0.0818286 0.0642008 16711680
0.353805 0.0824423 0.0638258 16711680
0.353249 0.0830045 0.0631263 16711680
0.353095 0.0836471 0.0629284 16711680
0.352845 0.0842709 0.0626116 16711680
0.352499 0.0848761 0.0621738 16711680
0.35546 0.0861298 0.0658635 16711680
0.35666 0.0870352 0.0673546 16711680
0.356512 0.0876767 0.0671644 16711680
0.35624 0.0882942 0.0668199 16711680
0.355865 0.0888921 0.0663459 16711680
0.355754 0.0895413 0.0662023 16711680
0.355397 0.0901432 0.0657502 16711680
0.355225 0.0907811 0.0655298 16711680
0.355123 0.0914324 0.0653971 16711680
0.354842 0.09205 0.0650418 16711680
0.354782 0.0927095 0.0649614 16711680
0.354515 0.0933298 0.0646218 16711680
0.354485 0.093995 0.0645785 16711680
0.354393 0.0946487 0.0644583 16711680
0.356273 0.0956693 0.0667995 16711680
0.361311 0.0972719 0.0730801 16711680
0.361031 0.0978859 0.0727252 16711680
0.360547 0.0984628 0.0721164 16711680
0.360007 0.0990298 0.0714362 16711680
0.359538 0.0996106 0.0708456 16711680
0.359399 0.100252 0.0706669 16711680
0.359005 0.100847 0.0701689 16711680
0.358666 0.101453 0.0697407 16711680
0.358411 0.102074 0.0694164 16711680
0.357912 0.102652 0.0687884 16711680
0.357322 0.103214 0.0680462 16711680
0.357211 0.103862 0.0679024 16711680
0.356649 0.10443 0.0671952 16711680
0.355975 0.10498 0.066349 16711680
0.355656 0.105592 0.0659448 16711680
0.355203 0.106181 0.0653744 16711680
0.354383 0.106708 0.0643457 16711680
0.353734 0.107264 0.0635296 16711680
0.342678 0.0493644 0.0491124 16711680
0.342816 0.0500818 0.0492795 16711680
0.342405 0.050672 0.0487597 16711680
0.341439 0.0511354 0.0475479 16711680
0.340453 0.0515955 0.0463115 16711680
0.339854 0.0521453 0.045558 16711680
0.33924 0.0526924 0.0447853 16711680
0.338686 0.0532538 0.0440873 16711680
0.339188 0.054055 0.0447088 16711680
0.342953 0.0555913 0.049405 16711680
0.343423 0.0563814 0.0499867 16711680
0.343162 0.0570067 0.0496542 16711680
0.34279 0.0576077 0.0491849 16711680
0.34275 0.0582829 0.0491291 16711680
0.342436 0.0588972 0.0487312 16711680
0.342366 0.059566 0.0486381 16711680
0.342219 0.0602177 0.0484488 16711680
0.342127 0.0608817 0.0483283 16711680
0.342057 0.0615504 0.0482349 16711680
0.342195 0.0622648 0.0484022 16711680
0.342232 0.0629566 0.0484421 16711680
0.342638 0.0637285 0.0489436 16711680
0.342842 0.064456 0.049193 16711680
0.343382 0.0652554 0.0498611 16711680
0.343887 0.0660466 0.0504862 16711680
0.343891 0.0667298 0.0504866 16711680
0.344099 0.0674562 0.05074 16711680
0.344415 0.0682052 0.0511286 16711680
0.348291 0.0697081 0.0559638 16711680
0.347992 0.0703238 0.0555856 16711680
0.347114 0.0708177 0.0544826 16711680
0.345993 0.071262 0.0530777 16711680
0.345964 0.071936 0.0530361 16711680
0.346907 0.0728125 0.0542082 16711680
0.347157 0.0735434 0.0545138 16711680
