# .PCD v0.7 - Point Cloud Data file format
VERSION 0.7
FIELDS x y z rgb
SIZE 4 4 4 4
TYPE F F F F
COUNT 1 1 1 1
WIDTH 1287
HEIGHT 1
VIEWPOINT 0 0 0 1 0 0 0
POINTS 1287
DATA ascii
0.448212 0.127485 0.0313144 16711680
0.448096 0.128119 0.0311544 16711680
0.447998 0.128756 0.0310209 16711680
0.44786 0.129387 0.0308295 16711680
0.447869 0.130041 0.0308474 16711680
0.447728 0.130671 0.0306516 16711680
0.447773 0.131332 0.0307208 16711680
0.44749 0.131939 0.0303237 16711680
0.447136 0.132535 0.0298245 16711680
0.446629 0.133106 0.0291067 16711680
0.446218 0.133694 0.028527 16711680
0.446075 0.134325 0.0283277 16711680
0.445902 0.134952 0.0280867 16711680
0.445636 0.135563 0.0277121 16711680
0.44563 0.136217 0.0277097 16711680
0.446015 0.136931 0.0282638 16711680
0.447721 0.137852 0.0307006 16711680
0.447189 0.138421 0.0299469 16711680
0.44645 0.138959 0.0288999 16711680
0.446929 0.139686 0.0295881 16711680
0.446805 0.14032 0.0294158 16711680
0.446321 0.140899 0.0287309 16711680
0.445957 0.141497 0.0282178 16711680
0.445551 0.142089 0.027645 16711680
0.445383 0.142717 0.0274097 16711680
0.44645 0.143529 0.028936 16711680
0.446514 0.144191 0.0290333 16711680
0.4457 0.144724 0.027878 16711680
0.446058 0.147386 0.0284086 16711680
0.445746 0.147994 0.0279691 16711680
0.462134 0.0597549 0.0494187 16711680
0.461797 0.0603232 0.0489434 16711680
0.461262 0.0608421 0.0481858 16711680
0.460194 0.0612284 0.0466677 16711680
0.459594 0.061733 0.0458173 16711680
0.46019 0.0625362 0.0466743 16711680
0.460028 0.0631502 0.0464491 16711680
0.459499 0.0636737 0.0457004 16711680
0.459376 0.064298 0.045531 16711680
0.459079 0.0648796 0.0451132 16711680
0.458826 0.0654722 0.044758 16711680
0.458783 0.0661166 0.0447025 16711680
0.45835 0.0666659 0.0440907 16711680
0.458215 0.0672882 0.0439044 16711680
0.458004 0.0678921 0.0436089 16711680
0.457785 0.0684944 0.0433024 16711680
0.457787 0.0691501 0.0433121 16711680
0.457579 0.0697552 0.0430204 16711680
0.457679 0.0704343 0.0431703 16711680
0.457503 0.0710473 0.0429248 16711680
0.457576 0.0717196 0.0430355 16711680
0.457366 0.0723248 0.0427418 16711680
0.457365 0.0729794 0.0427461 16711680
0.457273 0.0736126 0.0426213 16711680
0.457484 0.0743166 0.0429277 16711680
0.458516 0.075212 0.0444078 16711680
0.458643 0.075895 0.0445944 16711680
0.458255 0.0764585 0.0440466 16711680
0.457815 0.0770106 0.0434256 16711680
0.457751 0.0776497 0.0433402 16711680
0.457883 0.0783335 0.0435333 16711680
0.457358 0.0788673 0.0427912 16711680
0.456918 0.0794209 0.0421683 16711680
0.456796 0.0800475 0.042001 16711680
0.456686 0.0806766 0.0418494 16711680
0.457218 0.0814508 0.0426155 16711680
0.457652 0.0822018 0.0432402 16711680
0.457281 0.0827718 0.0427161 16711680
0.456492 0.0832493 0.041597 16711680
0.456155 0.0838282 0.0411214 16711680
0.456314 0.0845176 0.041355 16711680
0.456698 0.085256 0.0419079 16711680
0.456189 0.0857977 0.0411886 16711680
0.456011 0.0864123 0.0409396 16711680
0.455695 0.0869972 0.0404949 16711680
0.455157 0.0875339 0.0397325 16711680
0.454954 0.0881443 0.0394495 16711680
0.454765 0.0887578 0.0391858 16711680
0.454414 0.0893364 0.0386895 16711680
0.454358 0.089979 0.0386156 16711680
0.454149 0.0905888 0.0383232 16711680
0.454043 0.0912208 0.0381777 16711680
0.453929 0.0918513 0.038022 16711680
0.453773 0.0924727 0.0378045 16711680
0.453759 0.0931245 0.0377911 16711680
0.453573 0.0937398 0.0375308 16711680
0.453577 0.0943952 0.0375423 16711680
0.453412 0.0950152 0.0373127 16711680
0.453439 0.0956754 0.0373576 16711680
0.453305 0.096302 0.037172 16711680
0.453228 0.0969406 0.0370685 16711680
0.453119 0.0975725 0.036918 16711680
0.45309 0.0982209 0.0368831 16711680
0.452976 0.0988519 0.0367261 16711680
0.452833 0.0994771 0.0365273 16711680
0.452829 0.100131 0.0365279 16711680
0.452741 0.100767 0.0364072 16711680
0.453151 0.101503 0.0369987 16711680
0.453587 0.102244 0.0376273 16711680
0.453095 0.1028 0.0369302 16711680
0.452654 0.103366 0.0363072 16711680
0.453033 0.104094 0.036853 16711680
0.452873 0.104716 0.0366309 16711680
0.452715 0.105339 0.0364108 16711680
0.452167 0.105885 0.0356343 16711680
0.451738 0.106456 0.0350285 16711680
0.45163 0.107089 0.0348803 16711680
0.451262 0.107672 0.0343598 16711680
0.450925 0.108262 0.0338843 16711680
0.450849 0.108902 0.0337827 16711680
0.450681 0.109524 0.0335479 16711680
0.452442 0.110512 0.0360668 16711680
0.452792 0.111231 0.0365721 16711680
0.452761 0.111878 0.0365342 16711680
0.452591 0.112499 0.0362971 16711680
0.452649 0.113162 0.0363842 16711680
0.452547 0.113796 0.0362456 16711680
0.452552 0.114449 0.0362575 16711680
0.452424 0.115078 0.0360805 16711680
0.452306 0.115709 0.0359187 16711680
0.451999 0.116305 0.0354856 16711680
0.450947 0.116766 0.03399 16711680
0.450122 0.11727 0.0328184 16711680
0.449646 0.117838 0.032145 16711680
0.449871 0.118532 0.0324708 16711680
0.44965 0.119146 0.0321618 16711680
0.449507 0.119775 0.0319631 16711680
0.449363 0.120403 0.0317637 16711680
0.449179 0.121025 0.0315062 16711680
0.449186 0.12168 0.0315213 16711680
0.449543 0.122396 0.0320363 16711680
0.449917 0.123115 0.0325758 16711680
0.449694 0.123729 0.0322624 16711680
0.449378 0.124328 0.0318176 16711680
0.44955 0.125011 0.0320693 16711680
0.449389 0.125636 0.0318438 16711680
0.448982 0.12622 0.031269 16711680
0.448856 0.126852 0.0310949 16711680
0.448675 0.127475 0.0308417 16711680
0.448531 0.128104 0.0306418 16711680
0.448439 0.128742 0.0305161 16711680
0.448313 0.129374 0.0303419 16711680
0.448324 0.13003 0.0303636 16711680
0.448279 0.130676 0.030305 16711680
0.448383 0.131346 0.0304577 16711680
0.448263 0.131979 0.0302931 16711680
0.4484 0.132655 0.0304933 16711680
0.448214 0.133278 0.0302328 16711680
0.44814 0.133919 0.0301331 16711680
0.447898 0.134533 0.0297939 16711680
0.447006 0.135044 0.0285265 16711680
0.446671 0.135644 0.0280532 16711680
0.446634 0.136292 0.028006 16711680
0.447785 0.137127 0.0296537 16711680
0.448349 0.137867 0.0304637 16711680
0.447749 0.138426 0.0296131 16711680
0.447164 0.138988 0.0287839 16711680
0.44786 0.139749 0.0297825 16711680
0.447385 0.140328 0.0291092 16711680
0.446905 0.140908 0.0284301 16711680
0.446553 0.141507 0.0279342 16711680
0.446075 0.142088 0.0272564 16711680
0.446135 0.14275 0.0273474 16711680
0.447294 0.143577 0.0290065 16711680
0.447025 0.144189 0.0286288 16711680
0.446189 0.144718 0.0274403 16711680
0.462673 0.0604136 0.0490692 16711680
0.46216 0.0609378 0.0483429 16711680
0.461081 0.0613207 0.0468072 16711680
0.460315 0.0617834 0.045718 16711680
0.460364 0.0624504 0.0457954 16711680
0.460629 0.0631706 0.0461795 16711680
0.460322 0.063749 0.0457479 16711680
0.460178 0.0643679 0.0455488 16711680
0.459765 0.0649206 0.0449643 16711680
0.459559 0.0655248 0.0446765 16711680
0.459428 0.0661472 0.0444947 16711680
0.458994 0.0666963 0.0438818 16711680
0.458945 0.0673393 0.0438178 16711680
0.458633 0.0679186 0.0433781 16711680
0.458518 0.0685459 0.04322 16711680
0.458433 0.0691803 0.0431042 16711680
0.458288 0.0698006 0.042904 16711680
0.458319 0.0704631 0.0429548 16711680
0.458134 0.0710737 0.0426958 16711680
0.458166 0.0717363 0.0427487 16711680
0.458003 0.0723525 0.0425217 16711680
0.458056 0.0730197 0.0426031 16711680
0.457875 0.0736319 0.0423512 16711680
0.457926 0.0742984 0.0424293 16711680
0.458359 0.0750541 0.0430546 16711680
0.459359 0.0759407 0.0444893 16711680
0.459247 0.0765681 0.0443358 16711680
0.458579 0.0770669 0.0433872 16711680
0.458288 0.0776535 0.0429775 16711680
0.458659 0.0783925 0.043514 16711680
0.458187 0.0789379 0.0428456 16711680
0.457925 0.0795318 0.0424773 16711680
0.457467 0.0800815 0.0418288 16711680
0.457168 0.0806681 0.0414088 16711680
0.457579 0.0814148 0.0420011 16711680
0.45809 0.0821835 0.0427378 16711680
0.457983 0.0828127 0.042591 16711680
0.457586 0.0833774 0.0420299 16711680
0.456881 0.083874 0.041029 16711680
0.456955 0.0845443 0.0411404 16711680
0.457588 0.085338 0.0420516 16711680
0.456965 0.0858538 0.0411664 16711680
0.45661 0.0864297 0.0406661 16711680
0.456316 0.0870191 0.040252 16711680
0.455776 0.0875554 0.0394868 16711680
0.455593 0.0881698 0.0392306 16711680
0.455381 0.0887781 0.0389336 16711680
0.455049 0.089361 0.0384657 16711680
0.455007 0.0900065 0.038412 16711680
0.454751 0.0906059 0.0380511 16711680
0.454661 0.0912413 0.0379291 16711680
0.454541 0.0918704 0.0377638 16711680
0.454384 0.0924917 0.037546 16711680
0.45439 0.0931473 0.0375595 16711680
0.454209 0.0937638 0.0373073 16711680
0.454227 0.0944221 0.0373396 16711680
0.454039 0.0950373 0.0370771 16711680
0.454108 0.0957058 0.0371804 16711680
0.453938 0.0963249 0.0369439 16711680
0.453947 0.0969811 0.0369632 16711680
0.453801 0.0976052 0.0367599 16711680
0.453778 0.0982547 0.0367332 16711680
0.453668 0.0988864 0.0365818 16711680
0.453525 0.0995114 0.0363828 16711680
0.453476 0.100156 0.0363191 16711680
0.453366 0.100788 0.0361682 16711680
0.453687 0.101506 0.0366328 16711680
0.454226 0.102268 0.0374088 16711680
0.4537 0.102816 0.0366629 16711680
0.453192 0.103369 0.0359423 16711680
0.453591 0.104101 0.0365194 16711680
0.453392 0.104716 0.03624 16711680
0.453249 0.105341 0.0360421 16711680
0.452747 0.105897 0.035331 16711680
0.452292 0.106462 0.034686 16711680
0.45223 0.107104 0.0346036 16711680
0.451863 0.107687 0.0340856 16711680
0.451514 0.108274 0.0335928 16711680
0.451466 0.10892 0.0335304 16711680
0.452224 0.109718 0.0346181 16711680
0.453852 0.110681 0.03695 16711680
0.453307 0.11123 0.0361762 16711680
0.453167 0.111856 0.035983 16711680
0.453052 0.112487 0.0358239 16711680
0.453186 0.113165 0.036021 16711680
0.453051 0.113792 0.0358341 16711680
0.452983 0.114432 0.0357435 16711680
0.452966 0.115082 0.0357246 16711680
0.453014 0.115743 0.0357982 16711680
0.452871 0.116369 0.0356004 16711680
0.452268 0.116911 0.0347437 16711680
0.451231 0.117376 0.0332688 16711680
0.450464 0.117891 0.0321783 16711680
0.450682 0.118584 0.0324956 16711680
0.45063 0.119228 0.0324277 16711680
0.450581 0.119873 0.0323622 16711680
0.450067 0.120435 0.0316348 16711680
0.449837 0.121048 0.0313108 16711680
0.44997 0.121725 0.0315068 16711680
0.450603 0.12249 0.0324168 16711680
0.450523 0.123129 0.0323077 16711680
0.450249 0.123734 0.0319225 16711680
0.450108 0.124363 0.0317267 16711680
0.450213 0.125034 0.031882 16711680
0.44989 0.125632 0.0314267 16711680
0.449498 0.126218 0.0308716 16711680
0.449313 0.12684 0.0306139 16711680
0.449168 0.127469 0.0304118 16711680
0.449004 0.128095 0.0301838 16711680
0.448931 0.128736 0.0300844 16711680
0.448774 0.129364 0.0298657 16711680
0.44876 0.130015 0.0298512 16711680
0.448654 0.130651 0.0297056 16711680
0.448787 0.131326 0.0299009 16711680
0.448717 0.131968 0.0298067 16711680
0.44896 0.13266 0.0301592 16711680
0.448936 0.133309 0.0301299 16711680
0.448903 0.133957 0.0300893 16711680
0.448803 0.134594 0.0299515 16711680
0.448808 0.135247 0.0299636 16711680
0.448574 0.135863 0.0296363 16711680
0.448433 0.136493 0.0294398 16711680
0.448775 0.137199 0.0299333 16711680
0.448851 0.137864 0.0300475 16711680
0.44822 0.138418 0.0291519 16711680
0.448122 0.139055 0.0290173 16711680
0.448478 0.139763 0.0295314 16711680
0.44795 0.140334 0.028783 16711680
0.447468 0.140913 0.0280998 16711680
0.447181 0.141522 0.0276955 16711680
0.446706 0.142104 0.0270225 16711680
0.447075 0.142812 0.0275545 16711680
0.448068 0.143614 0.0289786 16711680
0.447581 0.144193 0.0282887 16711680
0.446724 0.144719 0.0270703 16711680
0.46329 0.0604388 0.0488256 16711680
0.462958 0.0610084 0.0483577 16711680
0.461954 0.0614098 0.0469279 16711680
0.461085 0.0618463 0.0456908 16711680
0.460623 0.0623855 0.0450357 16711680
0.461227 0.0631905 0.0459069 16711680
0.461078 0.0638077 0.0457002 16711680
0.460874 0.0644114 0.045414 16711680
0.460436 0.0649581 0.0447949 16711680
0.460318 0.0655836 0.0446324 16711680
0.46011 0.0661872 0.0443414 16711680
0.459746 0.0667529 0.0438262 16711680
0.459657 0.0673861 0.0437056 16711680
0.459287 0.0679512 0.0431826 16711680
0.459171 0.068578 0.043023 16711680
0.459082 0.0692116 0.0429028 16711680
0.458998 0.0698463 0.0427886 16711680
0.458963 0.0704926 0.0427443 16711680
0.458817 0.0711126 0.0425419 16711680
0.458816 0.0717673 0.0425477 16711680
0.458648 0.072382 0.042313 16711680
0.458665 0.0730406 0.042343 16711680
0.458485 0.073653 0.0420923 16711680
0.458463 0.0743025 0.0420672 16711680
0.458489 0.074963 0.0421104 16711680
0.459757 0.0759126 0.0439304 16711680
0.45996 0.0766131 0.0442274 16711680
0.459445 0.0771472 0.0434972 16711680
0.459025 0.0777037 0.0429025 16711680
0.45911 0.0783768 0.0430299 16711680
0.458977 0.0789998 0.0428457 16711680
0.458663 0.0795816 0.0424029 16711680
0.458171 0.0801235 0.0417061 16711680
0.457857 0.0807061 0.0412626 16711680
0.457852 0.0813592 0.0412624 16711680
0.458181 0.0820871 0.0417387 16711680
0.458504 0.082813 0.0422063 16711680
0.458482 0.0834613 0.042181 16711680
0.45786 0.0839761 0.041298 16711680
0.457599 0.0845716 0.0409304 16711680
0.45823 0.0853649 0.0418395 16711680
0.457781 0.0859189 0.041203 16711680
0.457425 0.0864943 0.040701 16711680
0.456947 0.0870432 0.0400234 16711680
0.456412 0.0875804 0.0392642 16711680
0.456222 0.0881932 0.0389986 16711680
0.455985 0.0887961 0.0386659 16711680
0.455693 0.0893874 0.0382543 16711680
0.455664 0.0900355 0.0382186 16711680
0.455369 0.0906266 0.0378025 16711680
0.455297 0.0912657 0.0377059 16711680
0.455146 0.0918881 0.0374964 16711680
0.455072 0.0925269 0.0373966 16711680
0.454999 0.0931659 0.0372987 16711680
0.4548 0.0937784 0.03702 16711680
0.454806 0.0944339 0.0370342 16711680
0.454703 0.0950668 0.0368929 16711680
0.454712 0.0957229 0.0369117 16711680
0.454568 0.0963472 0.0367115 16711680
0.454633 0.0970148 0.0368104 16711680
0.454467 0.0976349 0.0365803 16711680
0.454505 0.0982966 0.0366392 16711680
0.454284 0.0989056 0.0363299 16711680
0.454239 0.0995505 0.0362719 16711680
0.454097 0.100176 0.0360746 16711680
0.453974 0.100805 0.0359052 16711680
0.454197 0.101504 0.036229 16711680
0.454803 0.102278 0.0371011 16711680
0.454228 0.102817 0.0362849 16711680
0.453661 0.103358 0.035481 16711680
0.454117 0.104102 0.0361382 16711680
0.454042 0.104741 0.036038 16711680
0.45379 0.105345 0.0356823 16711680
0.453281 0.105899 0.0349616 16711680
0.452843 0.106468 0.0343413 16711680
0.4528 0.107113 0.0342847 16711680
0.452442 0.107698 0.033779 16711680
0.45219 0.108304 0.0334249 16711680
0.452289 0.108977 0.0335723 16711680
0.454307 0.110016 0.0364628 16711680
0.454441 0.110694 0.036661 16711680
0.453716 0.111209 0.0356302 16711680
0.452536 0.111639 0.0339488 16711680
0.45335 0.112445 0.0351186 16711680
0.453565 0.113138 0.0354317 16711680
0.453412 0.113762 0.0352192 16711680
0.452985 0.114336 0.0346134 16711680
0.45328 0.115043 0.0350419 16711680
0.453511 0.115738 0.0353777 16711680
0.453439 0.116377 0.0352811 16711680
0.45325 0.116995 0.0350161 16711680
0.452952 0.117593 0.0345951 16711680
0.452187 0.118107 0.0335072 16711680
0.451621 0.118658 0.0327042 16711680
0.451529 0.119295 0.0325779 16711680
0.451437 0.119932 0.0324531 16711680
0.45098 0.120504 0.0318049 16711680
0.450822 0.121129 0.0315847 16711680
0.450893 0.121795 0.0316913 16711680
0.451418 0.122541 0.0324482 16711680
0.451014 0.123123 0.0318758 16711680
0.450742 0.123729 0.0314939 16711680
0.450791 0.12439 0.0315692 16711680
0.450781 0.125042 0.031561 16711680
0.450463 0.12564 0.0311118 16711680
0.450046 0.126222 0.0305207 16711680
0.449891 0.126849 0.0303057 16711680
0.449663 0.127464 0.0299841 16711680
0.449508 0.128092 0.0297687 16711680
0.449437 0.128733 0.0296733 16711680
0.449282 0.129361 0.0294567 16711680
0.449238 0.130007 0.0294005 16711680
0.449106 0.130639 0.0292164 16711680
0.449138 0.131297 0.0292674 16711680
0.449009 0.13193 0.0290897 16711680
0.449228 0.132618 0.029408 16711680
0.449196 0.133266 0.0293674 16711680
0.449393 0.133951 0.0296553 16711680
0.449355 0.134598 0.0296068 16711680
0.449525 0.135278 0.0298555 16711680
0.449282 0.135891 0.0295126 16711680
0.449466 0.136573 0.0297817 16711680
0.449535 0.137236 0.0298862 16711680
0.449396 0.137867 0.029693 16711680
0.448911 0.138444 0.0290054 16711680
0.44937 0.139167 0.0296665 16711680
0.44918 0.13979 0.0294006 16711680
0.448529 0.140342 0.028475 16711680
0.447973 0.14091 0.0276866 16711680
0.4477 0.141521 0.0273011 16711680
0.447369 0.142124 0.0268344 16711680
0.448047 0.142879 0.0278087 16711680
0.448754 0.143638 0.0288242 16711680
0.4481 0.144192 0.027895 16711680
0.447282 0.144723 0.0267311 16711680
0.463857 0.0604514 0.0485106 16711680
0.463666 0.0610564 0.0482444 16711680
0.462814 0.0614955 0.04703 16711680
0.46189 0.0619179 0.0457133 16711680
0.461218 0.0624046 0.0447577 16711680
0.461792 0.0632021 0.0455868 16711680
0.461776 0.0638522 0.04557 16711680
0.461508 0.0644402 0.0451934 16711680
0.461123 0.0649993 0.0446476 16711680
0.461038 0.0656328 0.0445325 16711680
0.460677 0.066199 0.0440229 16711680
0.460404 0.0667868 0.043638 16711680
0.460294 0.0674147 0.0434872 16711680
0.459912 0.0679768 0.0429469 16711680
0.459854 0.0686175 0.0428694 16711680
0.459667 0.0692273 0.0426086 16711680
0.459638 0.0698752 0.0425742 16711680
0.459561 0.0705114 0.0424694 16711680
0.459459 0.0711418 0.0423301 16711680
0.459442 0.0717925 0.0423129 16711680
0.459322 0.0724186 0.0421472 16711680
0.4593 0.073068 0.042122 16711680
0.459098 0.073675 0.0418392 16711680
0.459067 0.0743221 0.0418001 16711680
0.459015 0.0749645 0.0417323 16711680
0.460104 0.0758726 0.0432979 16711680
0.460695 0.0766633 0.0441507 16711680
0.460462 0.0772623 0.0438234 16711680
0.459936 0.0777939 0.043076 16711680
0.459556 0.0783601 0.0425394 16711680
0.459617 0.0790275 0.0426327 16711680
0.459396 0.0796304 0.0423224 16711680
0.458895 0.0801698 0.0416112 16711680
0.458652 0.0807684 0.0412692 16711680
0.458301 0.0813432 0.0407742 16711680
0.458224 0.0819796 0.0406692 16711680
0.458828 0.0827692 0.0415409 16711680
0.459144 0.0834932 0.0419996 16711680
0.458616 0.0840287 0.0412499 16711680
0.458065 0.0845597 0.0404669 16711680
0.458717 0.0853577 0.0414073 16711680
0.458571 0.0859784 0.0412033 16711680
0.458133 0.0865355 0.0405834 16711680
0.457509 0.0870523 0.0396965 16711680
0.457054 0.0876067 0.0390505 16711680
0.456902 0.0882277 0.0388391 16711680
0.456591 0.0888144 0.0384005 16711680
0.456357 0.0894182 0.0380719 16711680
0.456251 0.0900496 0.0379262 16711680
0.455962 0.0906419 0.0375181 16711680
0.455964 0.0912967 0.0375274 16711680
0.455757 0.091907 0.0372373 16711680
0.455671 0.0925432 0.0371206 16711680
0.455588 0.09318 0.0370084 16711680
0.45546 0.0938073 0.0368309 16711680
0.455453 0.0944601 0.0368265 16711680
0.455383 0.0950998 0.0367333 16711680
0.45534 0.0957449 0.0366768 16711680
0.455235 0.0963773 0.0365329 16711680
0.455233 0.0970309 0.036536 16711680
0.45511 0.0976598 0.0363669 16711680
0.455138 0.0983194 0.036413 16711680
0.454868 0.0989182 0.0360326 16711680
0.454842 0.0995669 0.0360012 16711680
0.454701 0.100192 0.0358053 16711680
0.454584 0.100823 0.0356443 16711680
0.454724 0.101505 0.0358498 16711680
0.455427 0.102299 0.0368623 16711680
0.45483 0.102833 0.0360144 16711680
0.454306 0.103383 0.0352707 16711680
0.45461 0.104096 0.0357116 16711680
0.454562 0.10474 0.0356491 16711680
0.454404 0.105363 0.0354285 16711680
0.453928 0.105923 0.034754 16711680
0.453581 0.106509 0.034263 16711680
0.453386 0.107125 0.0339891 16711680
0.453052 0.107715 0.033517 16711680
0.452959 0.108351 0.0333906 16711680
0.453071 0.109026 0.0335567 16711680
0.455319 0.110109 0.0367801 16711680
0.454993 0.110699 0.0363188 16711680
0.454136 0.111189 0.0350988 16711680
0.452996 0.111627 0.0334735 16711680
0.454007 0.112471 0.0349259 16711680
0.454149 0.11315 0.0351346 16711680
0.45383 0.113743 0.0346838 16711680
0.453126 0.114265 0.0336828 16711680
0.453149 0.114922 0.033721 16711680
0.45315 0.115576 0.0337292 16711680
0.45385 0.116357 0.0347365 16711680
0.453927 0.117023 0.0348529 16711680
0.453778 0.117648 0.0346453 16711680
0.453248 0.118204 0.0338919 16711680
0.452301 0.118686 0.0325434 16711680
0.452426 0.119362 0.0327278 16711680
0.452203 0.119975 0.0324147 16711680
0.45202 0.120595 0.0321581 16711680
0.451927 0.121232 0.0320313 16711680
0.452266 0.121945 0.0325223 16711680
0.452074 0.122564 0.0322535 16711680
0.451503 0.123117 0.0314415 16711680
0.451395 0.123751 0.0312932 16711680
0.451389 0.124403 0.0312907 16711680
0.451321 0.125044 0.0311991 16711680
0.451007 0.125644 0.0307548 16711680
0.45058 0.126224 0.0301499 16711680
0.450399 0.126846 0.029897 16711680
0.450175 0.127462 0.0295814 16711680
0.450016 0.128089 0.0293596 16711680
0.449938 0.128729 0.0292538 16711680
0.449805 0.12936 0.0290695 16711680
0.449745 0.130004 0.02899 16711680
0.449625 0.130637 0.0288231 16711680
0.449583 0.131284 0.0287688 16711680
0.449466 0.131918 0.0286077 16711680
0.449409 0.132562 0.028531 16711680
0.449376 0.13321 0.0284892 16711680
0.449391 0.133866 0.0285175 16711680
0.44944 0.134527 0.0285923 16711680
0.449701 0.135222 0.0289723 16711680
0.449685 0.135872 0.0289541 16711680
0.45021 0.136608 0.0297109 16711680
0.450232 0.137263 0.029749 16711680
0.449889 0.137862 0.0292639 16711680
0.449606 0.13847 0.0288635 16711680
0.450127 0.139203 0.0296158 16711680
0.449698 0.139789 0.0290067 16711680
0.449074 0.140345 0.0281199 16711680
0.448616 0.140928 0.02747 16711680
0.448275 0.141529 0.0269874 16711680
0.448026 0.142144 0.0266371 16711680
0.448976 0.14294 0.0280023 16711680
0.449325 0.143644 0.0285065 16711680
0.448592 0.144187 0.0274638 16711680
0.44937 0.146909 0.028599 16711680
0.448353 0.147413 0.027149 16711680
0.464433 0.0604662 0.0482084 16711680
0.464223 0.0610662 0.0479138 16711680
0.463758 0.0616026 0.0472546 16711680
0.462733 0.0619992 0.0457919 16711680
0.461909 0.0624476 0.0446178 16711680
0.462292 0.0631976 0.0451739 16711680
0.462607 0.0639297 0.0456308 16711680
0.462127 0.0644648 0.0449493 16711680
0.461746 0.065025 0.0444099 16711680
0.461659 0.065658 0.0442922 16711680
0.461318 0.0662288 0.0438101 16711680
0.461151 0.0668423 0.0435768 16711680
0.460892 0.0674338 0.0432122 16711680
0.460534 0.0680017 0.0427067 16711680
0.460494 0.0686467 0.0426552 16711680
0.460272 0.0692479 0.0423443 16711680
0.460249 0.069897 0.0423172 16711680
0.460166 0.0705318 0.0422045 16711680
0.460108 0.0711726 0.0421278 16711680
0.460024 0.0718072 0.0420144 16711680
0.459889 0.0724298 0.0418276 16711680
0.459876 0.0730812 0.0418148 16711680
0.459684 0.0736905 0.0415461 16711680
0.459694 0.0743474 0.0415677 16711680
0.45976 0.0750173 0.0416689 16711680
0.461067 0.0759761 0.043548 16711680
0.46125 0.0766716 0.0438161 16711680
0.461213 0.077316 0.0437694 16711680
0.460816 0.0778771 0.0432066 16711680
0.460254 0.078401 0.0424081 16711680
0.460187 0.079039 0.0423181 16711680
0.460062 0.0796638 0.0421461 16711680
0.459528 0.0801956 0.0413867 16711680
0.45938 0.0808157 0.0411813 16711680
0.458999 0.0813832 0.0406412 16711680
0.458677 0.0819646 0.0401869 16711680
0.459238 0.0827444 0.0409963 16711680
0.459817 0.0835274 0.0418323 16711680
0.459236 0.0840509 0.0410067 16711680
0.458875 0.0846241 0.0404965 16711680
0.459404 0.0853946 0.04126 16711680
0.459199 0.0860023 0.0409721 16711680
0.458755 0.0865578 0.0403426 16711680
0.458173 0.0870836 0.0395149 16711680
0.457752 0.0876453 0.0389178 16711680
0.457552 0.0882558 0.0386378 16711680
0.457174 0.088828 0.0381032 16711680
0.457025 0.0894498 0.0378953 16711680
0.456861 0.0900688 0.0376673 16711680
0.456609 0.0906688 0.0373118 16711680
0.456606 0.0913226 0.0373143 16711680
0.456385 0.0919297 0.0370039 16711680
0.456322 0.0925707 0.0369203 16711680
0.456183 0.0931954 0.0367261 16711680
0.456093 0.0938307 0.0366035 16711680
0.456053 0.0944766 0.0365528 16711680
0.455975 0.0951144 0.0364472 16711680
0.455935 0.0957603 0.0363969 16711680
0.455818 0.09639 0.0362349 16711680
0.45583 0.0970466 0.0362586 16711680
0.455718 0.0976774 0.0361037 16711680
0.455724 0.0983325 0.0361185 16711680
0.45552 0.0989448 0.035833 16711680
0.455505 0.0995955 0.0358168 16711680
0.45532 0.100212 0.0355583 16711680
0.455216 0.100845 0.0354155 16711680
0.455296 0.101515 0.0355364 16711680
0.455991 0.102308 0.0365384 16711680
0.455384 0.10284 0.0356748 16711680
0.454849 0.103387 0.0349143 16711680
0.455186 0.104107 0.0354029 16711680
0.455246 0.104772 0.0354953 16711680
0.45496 0.105369 0.0350914 16711680
0.454477 0.105928 0.0344062 16711680
0.454275 0.106543 0.0341216 16711680
0.45404 0.107151 0.0337912 16711680
0.453673 0.107734 0.0332714 16711680
0.453653 0.108384 0.0332499 16711680
0.453758 0.109058 0.0334053 16711680
0.455939 0.110128 0.0365355 16711680
0.455519 0.1107 0.0359397 16711680
0.454639 0.111186 0.0346866 16711680
0.453538 0.111631 0.0331149 16711680
0.454686 0.1125 0.0347648 16711680
0.454726 0.11316 0.0348282 16711680
0.454362 0.113745 0.0343131 16711680
0.453685 0.114272 0.0333494 16711680
0.453312 0.114856 0.0328212 16711680
0.453265 0.115501 0.03276 16711680
0.45338 0.116175 0.03293 16711680
0.45434 0.117003 0.0343117 16711680
0.45445 0.117675 0.0344753 16711680
0.454184 0.118279 0.0340997 16711680
0.453547 0.118816 0.0331931 16711680
0.453259 0.119417 0.0327865 16711680
0.452965 0.120017 0.0323708 16711680
0.453192 0.120711 0.0327026 16711680
0.453111 0.121349 0.0325928 16711680
0.453275 0.12203 0.0328329 16711680
0.452585 0.122561 0.0318503 16711680
0.452014 0.123115 0.0310385 16711680
0.452111 0.123785 0.031184 16711680
0.451962 0.124412 0.0309759 16711680
0.451841 0.125044 0.0308088 16711680
0.451481 0.125635 0.0302987 16711680
0.451098 0.126223 0.0297552 16711680
0.450953 0.126851 0.0295541 16711680
0.450722 0.127466 0.0292289 16711680
0.450567 0.128093 0.0290132 16711680
0.450481 0.128732 0.0288947 16711680
0.450333 0.129361 0.0286891 16711680
0.45028 0.130005 0.0286188 16711680
0.450148 0.130637 0.0284363 16711680
0.450075 0.131279 0.0283374 16711680
0.449982 0.131917 0.0282092 16711680
0.449869 0.132552 0.0280534 16711680
0.449832 0.133199 0.0280058 16711680
0.44969 0.133829 0.0278085 16711680
0.449686 0.134482 0.0278093 16711680
0.449603 0.135122 0.027696 16711680
0.449859 0.135816 0.0280675 16711680
0.450586 0.136584 0.0291146 16711680
0.450769 0.137265 0.0293828 16711680
0.450418 0.137862 0.0288862 16711680
0.450328 0.1385 0.0287628 16711680
0.450744 0.139217 0.0293646 16711680
0.450238 0.139791 0.0286452 16711680
0.449571 0.140341 0.027696 16711680
0.44915 0.140929 0.0270975 16711680
0.448838 0.141534 0.0266565 16711680
0.448771 0.142177 0.026567 16711680
0.449856 0.142993 0.0281267 16711680
0.449849 0.143644 0.0281217 16711680
0.44913 0.144189 0.0270983 16711680
0.450241 0.14696 0.0287111 16711680
0.448985 0.147429 0.0269181 16711680
0.464742 0.0610667 0.0475301 16711680
0.464572 0.0616771 0.0472934 16711680
0.463862 0.0621524 0.0462818 16711680
0.462826 0.062547 0.0448015 16711680
0.462661 0.0631604 0.0445727 16711680
0.463169 0.0639405 0.0453067 16711680
0.46271 0.0644809 0.0446558 16711680
0.462429 0.0650656 0.044259 16711680
0.462355 0.0657015 0.0441593 16711680
0.461938 0.0662535 0.0435681 16711680
0.461862 0.0668894 0.0434662 16711680
0.461507 0.0674573 0.0429634 16711680
0.46119 0.0680347 0.0425146 16711680
0.461149 0.0686796 0.0424633 16711680
0.460881 0.0692696 0.0420858 16711680
0.460878 0.0699233 0.0420867 16711680
0.460748 0.070547 0.0419081 16711680
0.460676 0.0711844 0.0418116 16711680
0.460579 0.0718156 0.0416777 16711680
0.460526 0.0724578 0.0416095 16711680
0.460486 0.0731028 0.0415586 16711680
0.460332 0.0737208 0.0413438 16711680
0.460625 0.0744439 0.0417699 16711680
0.46177 0.0753659 0.0434192 16711680
0.461864 0.0760409 0.0435604 16711680
0.461725 0.0766615 0.0433674 16711680
0.46177 0.0773248 0.043438 16711680
0.46159 0.077936 0.0431864 16711680
0.460999 0.078453 0.042346 16711680
0.46076 0.0790514 0.0420097 16711680
0.460661 0.079682 0.0418737 16711680
0.46035 0.0802646 0.0414349 16711680
0.460052 0.0808502 0.0410132 16711680
0.459644 0.0814116 0.0404348 16711680
0.459359 0.082001 0.0400318 16711680
0.46012 0.0828258 0.0411297 16711680
0.460533 0.0835715 0.0417291 16711680
0.459871 0.0840767 0.0407861 16711680
0.459446 0.0846353 0.0401821 16711680
0.459919 0.0853935 0.040867 16711680
0.459787 0.0860173 0.0406841 16711680
0.459371 0.0865788 0.0400939 16711680
0.458786 0.087104 0.0392623 16711680
0.45834 0.0876603 0.0386292 16711680
0.458131 0.0882685 0.038335 16711680
0.457791 0.0888487 0.0378536 16711680
0.457628 0.0894675 0.037626 16711680
0.457472 0.0900881 0.0374098 16711680
0.457226 0.0906894 0.0370624 16711680
0.457194 0.0913368 0.0370232 16711680
0.456969 0.0919431 0.0367072 16711680
0.456925 0.0925878 0.0366495 16711680
0.456797 0.0932151 0.0364732 16711680
0.456689 0.0938465 0.0363245 16711680
0.456615 0.094485 0.036224 16711680
0.456585 0.0951329 0.036188 16711680
0.456524 0.0957742 0.0361062 16711680
0.456452 0.0964133 0.0360099 16711680
0.456441 0.0970649 0.0359994 16711680
0.456359 0.0977019 0.0358882 16711680
0.456331 0.09835 0.0358545 16711680
0.456175 0.0989719 0.0356374 16711680
0.456091 0.0996085 0.0355226 16711680
0.455892 0.100222 0.0352439 16711680
0.455798 0.100857 0.0351154 16711680
0.455832 0.101518 0.0351707 16711680
0.456593 0.102324 0.0362678 16711680
0.45606 0.10287 0.0355101 16711680
0.455406 0.103393 0.0345773 16711680
0.45565 0.104095 0.0349334 16711680
0.455852 0.104789 0.0352302 16711680
0.455506 0.105374 0.0347393 16711680
0.455155 0.105959 0.0342429 16711680
0.455028 0.106588 0.0340673 16711680
0.454681 0.107174 0.033576 16711680
0.454294 0.107753 0.0330266 16711680
0.454285 0.108405 0.03302 16711680
0.454711 0.10914 0.0336363 16711680
0.456619 0.110158 0.0363787 16711680
0.456183 0.110727 0.0357599 16711680
0.45526 0.111204 0.0344419 16711680
0.454133 0.111644 0.0328325 16711680
0.45531 0.112519 0.0345254 16711680
0.455447 0.113197 0.0347285 16711680
0.454947 0.113756 0.0340184 16711680
0.454219 0.114274 0.0329795 16711680
0.453758 0.114842 0.0323251 16711680
0.453656 0.115476 0.0321851 16711680
0.453532 0.116107 0.0320134 16711680
0.45391 0.116829 0.0325612 16711680
0.454869 0.117656 0.0339423 16711680
0.454862 0.118307 0.0339379 16711680
0.454434 0.118882 0.0333307 16711680
0.453892 0.119437 0.0325596 16711680
0.454059 0.120119 0.0328041 16711680
0.454092 0.120777 0.0328579 16711680
0.454047 0.121422 0.0327995 16711680
0.453759 0.122023 0.0323933 16711680
0.453064 0.122554 0.0314018 16711680
0.452776 0.123156 0.0309956 16711680
0.452852 0.123822 0.0311096 16711680
0.452436 0.124403 0.030519 16711680
0.452308 0.125034 0.0303414 16711680
0.451985 0.125631 0.0298845 16711680
0.451572 0.126214 0.0292982 16711680
0.451479 0.126852 0.0291721 16711680
0.45128 0.127471 0.0288922 16711680
0.451158 0.128104 0.0287225 16711680
0.451067 0.128742 0.0285976 16711680
0.450882 0.129365 0.0283393 16711680
0.450853 0.130013 0.0283033 16711680
0.450685 0.130639 0.0280688 16711680
0.450627 0.131283 0.0279909 16711680
0.450504 0.131916 0.0278206 16711680
0.450388 0.132551 0.0276605 16711680
0.450316 0.133192 0.0275632 16711680
0.45022 0.13383 0.027431 16711680
0.450163 0.134474 0.0273552 16711680
0.450044 0.135109 0.0271904 16711680
0.450109 0.135772 0.02729 16711680
0.45133 0.136619 0.029045 16711680
0.451372 0.137277 0.0291113 16711680
0.450993 0.13787 0.0285738 16711680
0.451154 0.138547 0.028811 16711680
0.451302 0.139222 0.0290279 16711680
0.450704 0.139782 0.0281763 16711680
0.450087 0.140339 0.0272979 16711680
0.449738 0.140938 0.0268042 16711680
0.449448 0.141547 0.0263945 16711680
0.449592 0.142221 0.0266062 16711680
0.450764 0.143051 0.0282912 16711680
0.450418 0.14365 0.0278015 16711680
0.449629 0.144185 0.0266761 16711680
0.465203 0.0610527 0.0470641 16711680
0.465263 0.0617207 0.0471561 16711680
0.464895 0.0622815 0.0466353 16711680
0.463813 0.0626643 0.0450883 16711680
0.463246 0.063177 0.044281 16711680
0.463795 0.0639674 0.0450757 16711680
0.463468 0.0645402 0.044613 16711680
0.463225 0.0651341 0.0442705 16711680
0.462969 0.065725 0.0439094 16711680
0.462543 0.0662746 0.0433043 16711680
0.462525 0.0669247 0.0432862 16711680
0.462156 0.0674889 0.0427628 16711680
0.461865 0.0680726 0.0423512 16711680
0.461782 0.0687071 0.0422397 16711680
0.461503 0.0692943 0.0418459 16711680
0.461452 0.0699365 0.0417786 16711680
0.461338 0.0705637 0.0416213 16711680
0.461263 0.0712004 0.0415208 16711680
0.461167 0.0718319 0.0413888 16711680
0.461143 0.0724807 0.0413612 16711680
0.461416 0.0731998 0.0417604 16711680
0.462094 0.0740135 0.0427397 16711680
0.462525 0.0747682 0.0433652 16711680
0.462445 0.0754026 0.0432582 16711680
0.462319 0.076026 0.0430824 16711680
0.462111 0.0766308 0.0427915 16711680
0.462249 0.0773158 0.0429964 16711680
0.462186 0.0779541 0.0429125 16711680
0.462012 0.0785667 0.0426689 16711680
0.461703 0.0791487 0.0422319 16711680
0.46128 0.0797049 0.0416313 16711680
0.461253 0.0803518 0.0415981 16711680
0.460948 0.0809356 0.0411667 16711680
0.460395 0.0814639 0.0403804 16711680
0.460654 0.0821759 0.0407586 16711680
0.461445 0.0830069 0.0419003 16711680
0.461083 0.0835783 0.0413865 16711680
0.460454 0.0840907 0.0404899 16711680
0.460028 0.0846491 0.039885 16711680
0.460333 0.0853701 0.0403293 16711680
0.460462 0.0860517 0.0405214 16711680
0.460035 0.0866106 0.0399148 16711680
0.459352 0.0871139 0.0389408 16711680
0.459024 0.0876959 0.0384771 16711680
0.458811 0.0883032 0.0381777 16711680
0.458388 0.0888652 0.0375766 16711680
0.458292 0.0894985 0.037446 16711680
0.458075 0.0901056 0.0371397 16711680
0.457863 0.0907142 0.0368421 16711680
0.457816 0.0913583 0.0367815 16711680
0.457566 0.0919591 0.0364286 16711680
0.457546 0.0926091 0.036407 16711680
0.457373 0.0932265 0.0361643 16711680
0.457309 0.0938671 0.0360789 16711680
0.457212 0.0945009 0.0359462 16711680
0.457176 0.0951473 0.0359004 16711680
0.457107 0.095787 0.0358087 16711680
0.457061 0.0964315 0.0357493 16711680
0.45705 0.0970829 0.0357388 16711680
0.456985 0.0977233 0.0356516 16711680
0.456933 0.0983664 0.0355833 16711680
0.456786 0.0989902 0.0353795 16711680
0.456729 0.0996323 0.0353041 16711680
0.4565 0.100239 0.0349809 16711680
0.456402 0.100873 0.0348471 16711680
0.456397 0.101526 0.0348461 16711680
0.457195 0.10234 0.0359972 16711680
0.456797 0.102913 0.0354325 16711680
0.456102 0.103428 0.0344416 16711680
0.456098 0.104081 0.0344424 16711680
0.456375 0.104789 0.0348464 16711680
0.45612 0.105392 0.0344857 16711680
0.455728 0.105969 0.0339301 16711680
0.455648 0.106607 0.0338217 16711680
0.455304 0.107193 0.0333331 16711680
0.454919 0.107772 0.0327874 16711680
0.454987 0.108439 0.0328914 16711680
0.455483 0.109188 0.0336089 16711680
0.45718 0.110166 0.0360512 16711680
0.456884 0.110761 0.0356328 16711680
0.45603 0.111251 0.0344123 16711680
0.455156 0.111739 0.0331643 16711680
0.455916 0.112535 0.0342622 16711680
0.456145 0.11323 0.0345967 16711680
0.455567 0.113774 0.0337726 16711680
0.454782 0.114281 0.0326526 16711680
0.454487 0.11488 0.0322355 16711680
0.454246 0.115489 0.0318962 16711680
0.453998 0.116096 0.0315455 16711680
0.454077 0.116764 0.0316646 16711680
0.455217 0.117624 0.0333072 16711680
0.455664 0.118358 0.0339553 16711680
0.455151 0.118917 0.0332246 16711680
0.454553 0.119462 0.0323731 16711680
0.454746 0.120148 0.0326551 16711680
0.45472 0.120796 0.0326247 16711680
0.454428 0.121397 0.0322117 16711680
0.454113 0.121993 0.031765 16711680
0.453783 0.122588 0.0312984 16711680
0.453803 0.123244 0.0313332 16711680
0.453397 0.123826 0.0307556 16711680
0.452909 0.124394 0.0300617 16711680
0.45276 0.125021 0.0298533 16711680
0.452487 0.125628 0.0294688 16711680
0.452115 0.126217 0.0289412 16711680
0.452055 0.12686 0.028861 16711680
0.451846 0.127478 0.0285659 16711680
0.451736 0.128113 0.0284139 16711680
0.451626 0.128748 0.0282621 16711680
0.451483 0.129377 0.0280638 16711680
0.451423 0.130021 0.027983 16711680
0.451262 0.130648 0.0277586 16711680
0.45122 0.131294 0.0277042 16711680
0.45104 0.131918 0.027451 16711680
0.45093 0.132553 0.0272994 16711680
0.450851 0.133194 0.0271924 16711680
0.450747 0.13383 0.0270485 16711680
0.45068 0.134473 0.0269586 16711680
0.450555 0.135106 0.0267854 16711680
0.450756 0.135791 0.0270789 16711680
0.452045 0.136649 0.0289345 16711680
0.451779 0.137259 0.0285592 16711680
0.451488 0.137865 0.0281481 16711680
0.451897 0.138581 0.0287397 16711680
0.451791 0.139217 0.0285944 16711680
0.451235 0.139782 0.0278021 16711680
0.450469 0.140317 0.0267086 16711680
0.450147 0.14092 0.0262525 16711680
0.450021 0.141554 0.0260779 16711680
0.450808 0.142326 0.0272133 16711680
0.451301 0.143052 0.0279264 16711680
0.450945 0.143651 0.0274205 16711680
0.450124 0.14418 0.0262492 16711680
0.450864 0.146897 0.0273339 16711680
0.449745 0.147386 0.0257339 16711680
0.46567 0.0610399 0.0466049 16711680
0.46586 0.0617408 0.0468848 16711680
0.465587 0.0623254 0.0465001 16711680
0.464701 0.0627567 0.0452327 16711680
0.463906 0.0632121 0.0440965 16711680
0.464056 0.0639037 0.0443201 16711680
0.464082 0.0645639 0.0443637 16711680
0.464077 0.0652165 0.0443636 16711680
0.463668 0.0657696 0.0437828 16711680
0.463305 0.0663344 0.0432676 16711680
0.463115 0.0669419 0.0430006 16711680
0.462745 0.067506 0.0424768 16711680
0.462522 0.0681061 0.0421625 16711680
0.462367 0.068723 0.0419466 16711680
0.462129 0.0693199 0.0416112 16711680
0.462066 0.0699593 0.0415276 16711680
0.461911 0.0705765 0.041311 16711680
0.461999 0.0712522 0.0414455 16711680
0.461975 0.0719008 0.0414172 16711680
0.462752 0.0727394 0.0425401 16711680
0.463131 0.0734827 0.043092 16711680
0.462955 0.0740942 0.042845 16711680
0.462942 0.0747443 0.0428331 16711680
0.462636 0.0753259 0.0424012 16711680
0.461959 0.075821 0.0414346 16711680
0.461854 0.0764503 0.0412909 16711680
0.461868 0.0771071 0.0413169 16711680
0.462521 0.0779115 0.0422621 16711680
0.462645 0.078593 0.0424469 16711680
0.462449 0.0792007 0.0421714 16711680
0.462088 0.079771 0.0416601 16711680
0.46217 0.0804425 0.0417837 16711680
0.461796 0.0810103 0.0412529 16711680
0.461921 0.0816916 0.0414389 16711680
0.461983 0.0823585 0.0415354 16711680
0.462038 0.0830234 0.0416206 16711680
0.461587 0.083575 0.0409799 16711680
0.461151 0.0841304 0.0403597 16711680
0.460999 0.0847495 0.0401471 16711680
0.460769 0.0853516 0.0398233 16711680
0.460943 0.0860431 0.0400802 16711680
0.460551 0.0866098 0.039524 16711680
0.459947 0.0871303 0.0386617 16711680
0.459782 0.0877478 0.0384322 16711680
0.459415 0.0883213 0.0379109 16711680
0.458977 0.08888 0.0372882 16711680
0.458962 0.0895306 0.0372725 16711680
0.45868 0.0901238 0.0368747 16711680
0.458495 0.090738 0.036615 16711680
0.458421 0.0913762 0.0365152 16711680
0.458211 0.0919855 0.0362202 16711680
0.458181 0.0926331 0.0361829 16711680
0.457978 0.0932443 0.0358988 16711680
0.457938 0.0938898 0.0358474 16711680
0.457814 0.0945179 0.0356762 16711680
0.457795 0.0951677 0.0356541 16711680
0.457713 0.0958046 0.0355436 16711680
0.457663 0.0964482 0.0354786 16711680
0.457621 0.0970932 0.035424 16711680
0.457581 0.0977388 0.0353736 16711680
0.457514 0.0983786 0.0352825 16711680
0.45738 0.0990048 0.0350964 16711680
0.457316 0.0996455 0.0350113 16711680
0.457098 0.100255 0.034705 16711680
0.457031 0.100895 0.0346147 16711680
0.456983 0.101539 0.034552 16711680
0.457731 0.102343 0.0356334 16711680
0.457524 0.102954 0.035342 16711680
0.456847 0.103472 0.0343758 16711680
0.456671 0.104091 0.0341296 16711680
0.456932 0.104796 0.034511 16711680
0.456706 0.105405 0.0341921 16711680
0.456364 0.105991 0.0337071 16711680
0.45627 0.106626 0.0335782 16711680
0.455965 0.10722 0.0331471 16711680
0.455656 0.107814 0.0327091 16711680
0.455737 0.108483 0.0328321 16711680
0.45638 0.10926 0.0337615 16711680
0.457738 0.110173 0.0357192 16711680
0.457633 0.110804 0.0355741 16711680
0.457195 0.111373 0.0349514 16711680
0.456541 0.111902 0.0340182 16711680
0.456346 0.112517 0.0337436 16711680
0.456837 0.113262 0.0344567 16711680
0.456186 0.113792 0.0335267 16711680
0.455574 0.114331 0.0326537 16711680
0.455203 0.114915 0.0321274 16711680
0.45481 0.115496 0.0315696 16711680
0.454514 0.116095 0.0311506 16711680
0.454521 0.11675 0.0311664 16711680
0.455298 0.117544 0.0322886 16711680
0.45636 0.118389 0.0338202 16711680
0.455828 0.118945 0.0330628 16711680
0.455176 0.11948 0.0321324 16711680
0.455077 0.120114 0.0319963 16711680
0.455053 0.120762 0.031967 16711680
0.454826 0.121374 0.0316479 16711680
0.454683 0.122001 0.0314476 16711680
0.454536 0.122628 0.0312428 16711680
0.454408 0.123258 0.0310651 16711680
0.453944 0.12383 0.0304049 16711680
0.453469 0.1244 0.0297295 16711680
0.453276 0.12502 0.0294576 16711680
0.453006 0.125627 0.0290759 16711680
0.452661 0.126221 0.0285865 16711680
0.452615 0.126866 0.0285259 16711680
0.452408 0.127484 0.0282354 16711680
0.452321 0.128123 0.0281169 16711680
0.452206 0.128757 0.0279574 16711680
0.452098 0.129392 0.0278078 16711680
0.452022 0.130033 0.027705 16711680
0.451866 0.130661 0.0274875 16711680
0.451831 0.131308 0.0274434 16711680
0.451613 0.131926 0.0271362 16711680
0.451486 0.132558 0.0269593 16711680
0.451404 0.133198 0.026847 16711680
0.451301 0.133835 0.0267053 16711680
0.451228 0.134476 0.0266072 16711680
0.45107 0.135104 0.0263861 16711680
0.451813 0.135876 0.0274589 16711680
0.452653 0.136662 0.0286715 16711680
0.452127 0.137231 0.0279219 16711680
0.451993 0.137862 0.027735 16711680
0.452512 0.138595 0.0284872 16711680
0.452259 0.139208 0.0281296 16711680
0.45163 0.139762 0.0272315 16711680
0.450971 0.140313 0.0262913 16711680
0.450662 0.140918 0.0258532 16711680
0.450657 0.14157 0.0258522 16711680
0.451922 0.142415 0.0276749 16711680
0.45193 0.143068 0.0276924 16711680
0.451396 0.143639 0.0269313 16711680
0.451187 0.146867 0.02666 16711680
0.46603 0.0610002 0.0459923 16711680
0.466329 0.0617287 0.0464293 16711680
0.466241 0.0623595 0.0463094 16711680
0.465583 0.0628479 0.0453702 16711680
0.464666 0.0632725 0.0440582 16711680
0.464219 0.0638152 0.0434214 16711680
0.464836 0.0646224 0.0443163 16711680
0.464798 0.0652666 0.0442687 16711680
0.464333 0.0658056 0.0436066 16711680
0.464026 0.066384 0.0431718 16711680
0.46378 0.0669778 0.042825 16711680
0.463354 0.0675279 0.0422186 16711680
0.463257 0.0681586 0.0420859 16711680
0.462961 0.0687412 0.0416679 16711680
0.462686 0.0693292 0.0412793 16711680
0.462783 0.0700069 0.0414245 16711680
0.462857 0.0706789 0.0415376 16711680
0.463397 0.0714622 0.0423216 16711680
0.463745 0.0721989 0.0428293 16711680
0.463584 0.0728139 0.0426042 16711680
0.463582 0.0734667 0.0426083 16711680
0.463135 0.0740145 0.0419725 16711680
0.46278 0.0745842 0.0414677 16711680
0.462543 0.0751824 0.0411345 16711680
0.462293 0.0757777 0.0407813 16711680
0.462216 0.0764135 0.0406772 16711680
0.462115 0.0770438 0.0405387 16711680
0.462075 0.0776884 0.040488 16711680
0.462932 0.0785396 0.0417272 16711680
0.463031 0.0792153 0.0418772 16711680
0.462954 0.0798503 0.0417724 16711680
0.462834 0.0804756 0.0416065 16711680
0.462684 0.0810943 0.0413983 16711680
0.462721 0.0817553 0.0414577 16711680
0.462582 0.0823765 0.0412643 16711680
0.462509 0.0830127 0.0411661 16711680
0.462086 0.0835704 0.0405638 16711680
0.461831 0.0841663 0.0402046 16711680
0.461709 0.0847918 0.0400348 16711680
0.461388 0.0853736 0.0395803 16711680
0.461231 0.085992 0.0393612 16711680
0.461116 0.0866197 0.0392022 16711680
0.460722 0.0871862 0.038642 16711680
0.460514 0.087794 0.0383496 16711680
0.460107 0.0883587 0.0377713 16711680
0.459653 0.0889136 0.0371244 16711680
0.459647 0.0895661 0.0371225 16711680
0.459327 0.090151 0.0366696 16711680
0.459218 0.0907815 0.0365196 16711680
0.459055 0.0914004 0.0362911 16711680
0.458852 0.092011 0.0360054 16711680
0.458825 0.0926593 0.0359735 16711680
0.458618 0.0932692 0.0356818 16711680
0.458591 0.0939175 0.0356499 16711680
0.458418 0.0945351 0.0354075 16711680
0.458395 0.0951843 0.0353816 16711680
0.458309 0.0958202 0.0352646 16711680
0.458277 0.0964673 0.0352249 16711680
0.458206 0.0971063 0.0351287 16711680
0.458172 0.097753 0.0350866 16711680
0.458095 0.0983908 0.0349823 16711680
0.457977 0.0990204 0.0348198 16711680
0.457896 0.0996574 0.0347089 16711680
0.457678 0.100267 0.0344019 16711680
0.457621 0.100909 0.0343266 16711680
0.457543 0.101547 0.0342211 16711680
0.458351 0.102363 0.0353901 16711680
0.458437 0.103032 0.0355197 16711680
0.457635 0.103525 0.0343735 16711680
0.457221 0.104097 0.0337844 16711680
0.457477 0.1048 0.0341583 16711680
0.457275 0.105414 0.0338743 16711680
0.457071 0.106027 0.033587 16711680
0.456917 0.10665 0.0333726 16711680
0.456562 0.107234 0.032868 16711680
0.45648 0.107872 0.032757 16711680
0.456478 0.108525 0.0327599 16711680
0.456995 0.109278 0.03351 16711680
0.458141 0.11015 0.0351651 16711680
0.458183 0.11081 0.0352315 16711680
0.45805 0.111436 0.0350461 16711680
0.457413 0.111968 0.0341374 16711680
0.457027 0.112547 0.0335883 16711680
0.457188 0.11323 0.0338259 16711680
0.456891 0.113827 0.0334055 16711680
0.456512 0.114408 0.0328659 16711680
0.455978 0.114962 0.0321053 16711680
0.455453 0.115518 0.0313562 16711680
0.455096 0.116106 0.030849 16711680
0.455019 0.116745 0.0307444 16711680
0.455813 0.117543 0.0318933 16711680
0.456996 0.11841 0.0335999 16711680
0.45646 0.118964 0.0328357 16711680
0.455731 0.119485 0.0317937 16711680
0.45561 0.120116 0.0316259 16711680
0.455536 0.120755 0.0315255 16711680
0.455324 0.12137 0.0312272 16711680
0.455362 0.122029 0.0312885 16711680
0.45511 0.122637 0.0309311 16711680
0.454866 0.123247 0.0305866 16711680
0.454478 0.123832 0.0300349 16711680
0.453968 0.124396 0.0293077 16711680
0.453735 0.125009 0.02898 16711680
0.453507 0.125622 0.0286579 16711680
0.453233 0.126229 0.0282701 16711680
0.453174 0.126872 0.0281914 16711680
0.452995 0.127495 0.0279405 16711680
0.452905 0.128133 0.0278165 16711680
0.452787 0.128766 0.0276533 16711680
0.45271 0.129407 0.0275491 16711680
0.452618 0.130045 0.0274234 16711680
0.452459 0.130672 0.0272003 16711680
0.452417 0.131318 0.0271459 16711680
0.452198 0.131935 0.0268369 16711680
0.452071 0.132568 0.0266607 16711680
0.451949 0.133201 0.0264909 16711680
0.451834 0.133836 0.0263329 16711680
0.451756 0.134477 0.026226 16711680
0.451745 0.135128 0.0262172 16711680
0.453417 0.136048 0.0286267 16711680
0.453172 0.136661 0.0282807 16711680
0.452477 0.137203 0.0272874 16711680
0.452678 0.137887 0.027582 16711680
0.452988 0.138588 0.028034 16711680
0.452717 0.139197 0.02765 16711680
0.452138 0.139759 0.0268233 16711680
0.451515 0.140316 0.0259337 16711680
0.451266 0.14093 0.0255817 16711680
0.451405 0.141604 0.0257876 16711680
0.452637 0.142444 0.0275649 16711680
0.452461 0.143069 0.0273175 16711680
0.451859 0.14363 0.026458 16711680
0.466578 0.0616611 0.0456567 16711680
0.466864 0.0623861 0.0460753 16711680
0.466514 0.0629513 0.0455786 16711680
0.465679 0.0633961 0.0443841 16711680
0.464925 0.063862 0.0433052 16711680
0.465107 0.0645612 0.0435746 16711680
0.465375 0.0652813 0.0439674 16711680
0.46504 0.0658522 0.0434921 16711680
0.464784 0.0664428 0.0431294 16711680
0.464496 0.0670263 0.0427231 16711680
0.464068 0.0675756 0.0421128 16711680
0.463946 0.0681999 0.0419438 16711680
0.463693 0.0687928 0.0415874 16711680
0.46381 0.0694752 0.0417616 16711680
0.464229 0.0702302 0.0423728 16711680
0.464555 0.0709621 0.0428488 16711680
0.464294 0.0715529 0.0424806 16711680
0.464203 0.0721845 0.042356 16711680
0.463792 0.07274 0.0417705 16711680
0.463441 0.0733104 0.0412725 16711680
0.46326 0.0739215 0.0410194 16711680
0.46304 0.0745234 0.0407088 16711680
0.463002 0.0751684 0.0406616 16711680
0.462824 0.0757803 0.040411 16711680
0.462741 0.0764148 0.0402986 16711680
0.462626 0.0770419 0.04014 16711680
0.46255 0.0776782 0.0400382 16711680
0.462686 0.0783633 0.0402408 16711680
0.463382 0.0791767 0.0412496 16711680
0.463342 0.0798205 0.0411991 16711680
0.463339 0.0804726 0.0412015 16711680
0.463199 0.0810934 0.0410063 16711680
0.463175 0.0817406 0.0409778 16711680
0.462851 0.0823201 0.0405186 16711680
0.462408 0.0828731 0.0398877 16711680
0.462327 0.0835081 0.0397782 16711680
0.462279 0.0841503 0.039716 16711680
0.462393 0.0848286 0.0398864 16711680
0.462131 0.0854232 0.0395155 16711680
0.461904 0.0860258 0.0391957 16711680
0.461636 0.0866197 0.0388167 16711680
0.461317 0.0872027 0.0383636 16711680
0.461195 0.0878293 0.0381955 16711680
0.460841 0.0884053 0.0376924 16711680
0.460536 0.0889924 0.0372599 16711680
0.460329 0.0896011 0.0369688 16711680
