# .PCD v0.7 - Point Cloud Data file format
VERSION 0.7
FIELDS x y z rgb
SIZE 4 4 4 4
TYPE F F F F
COUNT 1 1 1 1
WIDTH 1254
HEIGHT 1
VIEWPOINT 0 0 0 1 0 0 0
POINTS 1254
DATA ascii
0.390597 -0.0153889 0.0326164 16711680
0.392855 -0.0139881 0.0356277 16711680
0.39416 -0.0128908 0.0373677 16711680
0.395312 -0.0118437 0.0389036 16711680
0.396414 -0.0108139 0.0403734 16711680
0.396622 -0.010065 0.0406513 16711680
0.39671 -0.0093542 0.0407684 16711680
0.397306 -0.0084855 0.0415639 16711680
0.40096 0.00758621 0.0464442 16711680
0.401066 0.00829485 0.0465853 16711680
0.400912 0.00892726 0.0463799 16711680
0.401009 0.00963327 0.0465106 16711680
0.400955 0.010295 0.0464394 16711680
0.400925 0.0109633 0.0463985 16711680
0.40085 0.0116189 0.0462992 16711680
0.399888 0.0120183 0.0450169 16711680
0.398691 0.0123513 0.043421 16711680
0.398381 0.0129411 0.0430092 16711680
0.399982 0.0140783 0.045144 16711680
0.3993 0.0145607 0.0442345 16711680
0.398816 0.0151007 0.0435899 16711680
0.400875 0.0163636 0.0463345 16711680
0.398113 0.017614 0.0426534 16711680
0.397533 0.0181292 0.0418808 16711680
0.397587 0.0188229 0.0419534 16711680
0.397327 0.0194285 0.0416067 16711680
0.397536 0.0201651 0.0418851 16711680
0.397569 0.0208525 0.04193 16711680
0.398009 0.0216525 0.0425164 16711680
0.399132 0.0226406 0.0440139 16711680
0.400718 0.0237547 0.0461285 16711680
0.401346 0.0246027 0.0469658 16711680
0.40347 0.0258602 0.0497983 16711680
0.403608 0.026571 0.0499828 16711680
0.403787 0.0272925 0.0502206 16711680
0.403675 0.0279348 0.0500723 16711680
0.403837 0.0286513 0.0502884 16711680
0.403903 0.0293414 0.0503761 16711680
0.403951 0.0300265 0.0504403 16711680
0.403962 0.0307017 0.0504556 16711680
0.403877 0.0313509 0.0503428 16711680
0.403807 0.0320041 0.0502499 16711680
0.403776 0.0326678 0.0502092 16711680
0.403719 0.0333243 0.0501331 16711680
0.403641 0.0339754 0.0500294 16711680
0.403557 0.0346248 0.0499172 16711680
0.403513 0.035285 0.0498594 16711680
0.40341 0.0359292 0.0497211 16711680
0.403382 0.0365935 0.0496842 16711680
0.403289 0.0372408 0.049561 16711680
0.403371 0.0379337 0.0496708 16711680
0.404601 0.0389246 0.0513105 16711680
0.405834 0.0399144 0.0529541 16711680
0.40586 0.0405905 0.0529896 16711680
0.405787 0.0412407 0.052892 16711680
0.405737 0.0418969 0.0528253 16711680
0.405563 0.0425212 0.0525931 16711680
0.405378 0.043143 0.0523471 16711680
0.405326 0.043799 0.0522783 16711680
0.405094 0.0444091 0.0519694 16711680
0.405051 0.0450673 0.051912 16711680
0.404794 0.0456714 0.0515695 16711680
0.404686 0.0463134 0.0514262 16711680
0.404431 0.0469184 0.0510857 16711680
0.404206 0.0475314 0.0507865 16711680
0.404064 0.0481653 0.0505974 16711680
0.403714 0.0487475 0.0501308 16711680
0.403586 0.0493852 0.0499604 16711680
0.403294 0.0499825 0.0495712 16711680
0.402924 0.0505609 0.049078 16711680
0.402853 0.051213 0.0489827 16711680
0.402402 0.0517723 0.0483819 16711680
0.402014 0.0523474 0.0478642 16711680
0.401834 0.0529739 0.0476253 16711680
0.401393 0.0535368 0.0470365 16711680
0.401333 0.0541928 0.0469568 16711680
0.40095 0.0547708 0.0464468 16711680
0.400587 0.055354 0.0459625 16711680
0.400548 0.0560155 0.0459114 16711680
0.400029 0.0565619 0.0452186 16711680
0.39965 0.0571428 0.0447143 16711680
0.399471 0.0577713 0.0444753 16711680
0.398997 0.0583304 0.0438441 16711680
0.398709 0.0589337 0.0434593 16711680
0.398378 0.0595274 0.0430183 16711680
0.3979 0.0600872 0.0423819 16711680
0.397186 0.0605921 0.041429 16711680
0.390208 -0.0156826 0.0309688 16711680
0.392379 -0.0143084 0.033866 16711680
0.393955 -0.0131247 0.0359697 16711680
0.395049 -0.0120949 0.0374303 16711680
0.396153 -0.0110638 0.0389037 16711680
0.396966 -0.0101253 0.0399892 16711680
0.397651 -0.00922787 0.0409046 16711680
0.397994 -0.00843832 0.041362 16711680
0.397862 -0.00779656 0.0411863 16711680
0.398112 -0.00703642 0.0415206 16711680
0.398661 -0.00618434 0.0422547 16711680
0.399395 -0.00527677 0.0432334 16711680
0.399309 -0.00462165 0.0431205 16711680
0.398044 -0.00432825 0.0414317 16711680
0.397264 -0.0038844 0.0403918 16711680
0.39681 -0.00334027 0.0397865 16711680
0.397163 -0.00255018 0.040258 16711680
0.398303 -0.00152203 0.04178 16711680
0.398549 -0.000766069 0.0421094 16711680
0.399329 0.000150144 0.0431495 16711680
0.399497 0.000881255 0.0433745 16711680
0.399607 0.00159454 0.0435224 16711680
0.400357 0.0024991 0.0445235 16711680
0.400418 0.00319642 0.0446044 16711680
0.400506 0.00390193 0.0447228 16711680
0.4007 0.00463873 0.0449828 16711680
0.400762 0.0053356 0.0450652 16711680
0.400951 0.00607011 0.0453179 16711680
0.400926 0.00674105 0.0452851 16711680
0.401203 0.00750074 0.045655 16711680
0.401284 0.00820237 0.0457634 16711680
0.401315 0.00888944 0.0458062 16711680
0.401448 0.00960565 0.0459832 16711680
0.401478 0.0102918 0.0460236 16711680
0.401805 0.011064 0.0464603 16711680
0.401834 0.0117494 0.0464998 16711680
0.401942 0.0124575 0.0466449 16711680
0.401756 0.0130803 0.0463961 16711680
0.401914 0.0138025 0.046608 16711680
0.401886 0.0144707 0.0465703 16711680
0.401756 0.0151099 0.0463973 16711680
0.402299 0.015941 0.0471221 16711680
0.402832 0.0167686 0.0478351 16711680
0.403106 0.0175214 0.0482002 16711680
0.403043 0.0181786 0.0481166 16711680
0.403007 0.0188435 0.0480696 16711680
0.403063 0.019534 0.0481443 16711680
0.403084 0.0202145 0.0481725 16711680
0.403593 0.0210315 0.048852 16711680
0.403623 0.0217141 0.048893 16711680
0.403825 0.0224443 0.0491631 16711680
0.403873 0.0231314 0.0492277 16711680
0.403998 0.0238394 0.049394 16711680
0.404077 0.0245345 0.0494994 16711680
0.404082 0.0252091 0.0495064 16711680
0.404289 0.0259391 0.0497837 16711680
0.404309 0.0266174 0.0498108 16711680
0.404361 0.0273042 0.0498798 16711680
0.404222 0.0279392 0.0496957 16711680
0.40433 0.0286409 0.0498395 16711680
0.404264 0.0292956 0.0497525 16711680
0.404369 0.0299961 0.0498921 16711680
0.404363 0.0306667 0.0498847 16711680
0.404376 0.0313423 0.0499027 16711680
0.404317 0.0319984 0.0498236 16711680
0.404292 0.0326637 0.0497912 16711680
0.404216 0.0333151 0.0496893 16711680
0.404181 0.0339777 0.0496433 16711680
0.404118 0.0346327 0.0495592 16711680
0.404095 0.0352984 0.0495297 16711680
0.404706 0.0361307 0.0503451 16711680
0.405742 0.0370734 0.0517278 16711680
0.406582 0.0379633 0.0528493 16711680
0.406624 0.0386436 0.0529051 16711680
0.406616 0.0393107 0.0528946 16711680
0.406468 0.0399414 0.0526969 16711680
0.406455 0.0406072 0.0526801 16711680
0.406259 0.0412259 0.0524195 16711680
0.406172 0.0418726 0.0523036 16711680
0.406036 0.0425067 0.0521215 16711680
0.405789 0.0431127 0.0517925 16711680
0.40579 0.0437822 0.0517949 16711680
0.405562 0.0443933 0.0514907 16711680
0.405461 0.0450369 0.0513563 16711680
0.405206 0.0456415 0.0510156 16711680
0.405022 0.0462643 0.0507699 16711680
0.40486 0.0468931 0.0505551 16711680
0.404524 0.0474781 0.050106 16711680
0.404534 0.0481501 0.0501204 16711680
0.404103 0.0487123 0.0495456 16711680
0.403933 0.0493396 0.0493186 16711680
0.403689 0.0499488 0.0489931 16711680
0.403273 0.0505157 0.0484375 16711680
0.403198 0.0511671 0.0483377 16711680
0.402759 0.0517296 0.0477532 16711680
0.402349 0.0522994 0.0472056 16711680
0.402253 0.0529464 0.0470784 16711680
0.401858 0.0535205 0.0465504 16711680
0.401658 0.0541428 0.0462848 16711680
0.401408 0.0547529 0.0459511 16711680
0.401025 0.0553312 0.0454395 16711680
0.400998 0.0559956 0.0454041 16711680
0.40049 0.0565449 0.0447265 16711680
0.400014 0.0571024 0.0440913 16711680
0.399837 0.0577317 0.0438559 16711680
0.399449 0.0583111 0.0433385 16711680
0.39898 0.0588719 0.0427129 16711680
0.398887 0.0595216 0.0425886 16711680
0.398393 0.0600773 0.0419286 16711680
0.39228 -0.0145097 0.032607 16711680
0.393812 -0.0133391 0.034654 16711680
0.394861 -0.0123229 0.0360547 16711680
0.396074 -0.0112568 0.0376757 16711680
0.397105 -0.0102494 0.039054 16711680
0.397927 -0.00930911 0.0401522 16711680
0.398652 -0.00840011 0.0411217 16711680
0.399247 -0.00753295 0.0419166 16711680
0.399345 -0.00682041 0.0420485 16711680
0.39955 -0.00607529 0.0423225 16711680
0.399575 -0.00538585 0.0423571 16711680
0.399586 -0.00470102 0.0423721 16711680
0.399514 -0.00404185 0.0422758 16711680
0.398874 -0.00355601 0.0414224 16711680
0.397461 -0.00330532 0.0395353 16711680
0.397278 -0.00267833 0.0392913 16711680
0.397265 -0.00199947 0.0392747 16711680
0.397544 -0.0012323 0.0396485 16711680
0.398346 -0.000308067 0.0407194 16711680
0.398874 0.000532597 0.0414255 16711680
0.399616 0.00143662 0.0424173 16711680
0.399641 0.00212443 0.042451 16711680
0.40004 0.00292388 0.0429842 16711680
0.400772 0.00382203 0.0439627 16711680
0.400814 0.00451377 0.0440196 16711680
0.401026 0.00525555 0.0443027 16711680
0.401397 0.00604421 0.0447993 16711680
0.401517 0.00675797 0.0449599 16711680
0.401794 0.00751764 0.0453303 16711680
0.401857 0.00821412 0.0454154 16711680
0.401886 0.00890023 0.0454541 16711680
0.402032 0.00962067 0.0456507 16711680
0.402144 0.0103306 0.0458003 16711680
0.402491 0.0111085 0.0462639 16711680
0.402443 0.0117715 0.046201 16711680
0.40264 0.0125051 0.0464644 16711680
0.402618 0.0131753 0.0464356 16711680
0.402713 0.0138791 0.0465635 16711680
0.402916 0.0146135 0.0468347 16711680
0.402863 0.0152742 0.046764 16711680
0.403321 0.0160807 0.047376 16711680
0.40351 0.0168099 0.047629 16711680
0.403724 0.0175459 0.0479161 16711680
0.403832 0.0182512 0.0480599 16711680
0.403702 0.0188894 0.0478872 16711680
0.404084 0.0196717 0.0483983 16711680
0.404002 0.0203229 0.0482885 16711680
0.404279 0.0210748 0.0486594 16711680
0.404337 0.021765 0.0487373 16711680
0.404418 0.0224615 0.0488465 16711680
0.404509 0.0231603 0.048968 16711680
0.404473 0.0238239 0.0489208 16711680
0.404587 0.0245287 0.0490729 16711680
0.404539 0.0251888 0.0490097 16711680
0.404653 0.0258931 0.0491616 16711680
0.404615 0.0265557 0.0491114 16711680
0.40478 0.0272736 0.0493319 16711680
0.404668 0.0279158 0.0491831 16711680
0.404774 0.0286173 0.0493253 16711680
0.404754 0.0292844 0.0492992 16711680
0.404856 0.0299843 0.0494357 16711680
0.404828 0.0306489 0.0493982 16711680
0.404898 0.0313398 0.0494924 16711680
0.404862 0.0320022 0.0494452 16711680
0.404836 0.0326672 0.0494109 16711680
0.405761 0.0335853 0.0506468 16711680
0.406325 0.0344059 0.0513995 16711680
0.407139 0.035292 0.0524879 16711680
0.407362 0.0360205 0.0527855 16711680
0.407346 0.0366859 0.052765 16711680
0.407286 0.0373396 0.0526851 16711680
0.407251 0.0379997 0.0526386 16711680
0.407154 0.0386437 0.0525098 16711680
0.407123 0.0393048 0.0524684 16711680
0.406942 0.0399271 0.0522274 16711680
0.406882 0.0405808 0.0521479 16711680
0.40673 0.0412106 0.0519446 16711680
0.40656 0.0418362 0.0517185 16711680
0.406503 0.0424905 0.0516416 16711680
0.406179 0.043077 0.0512103 16711680
0.406135 0.043735 0.0511515 16711680
0.405895 0.0443432 0.0508311 16711680
0.40579 0.0449858 0.050691 16711680
0.405534 0.0455905 0.0503501 16711680
0.405306 0.0462024 0.0500455 16711680
0.405239 0.0468549 0.0499561 16711680
0.404914 0.0474429 0.0495225 16711680
0.404877 0.0481032 0.0494735 16711680
0.404487 0.0486756 0.0489531 16711680
0.404229 0.0492813 0.0486091 16711680
0.404045 0.0499054 0.0483632 16711680
0.403669 0.0504823 0.0478605 16711680
0.403507 0.0511125 0.0476446 16711680
0.403217 0.0517115 0.047258 16711680
0.402782 0.0522751 0.0466766 16711680
0.402686 0.0529223 0.0465498 16711680
0.402284 0.053495 0.0460132 16711680
0.401982 0.0540923 0.0456098 16711680
0.401783 0.0547148 0.0453439 16711680
0.401356 0.0552827 0.0447736 16711680
0.401349 0.055952 0.0447652 16711680
0.400858 0.0565053 0.0441087 16711680
0.400477 0.0570856 0.0436004 16711680
0.400351 0.057727 0.043433 16711680
0.399989 0.0583126 0.0429502 16711680
0.39949 0.0588661 0.0422828 16711680
0.392421 -0.0146357 0.0316663 16711680
0.393921 -0.0134746 0.0336723 16711680
0.395075 -0.0124247 0.0352155 16711680
0.39611 -0.0114138 0.0366007 16711680
0.397111 -0.0104153 0.0379401 16711680
0.398099 -0.00942257 0.0392615 16711680
0.399002 -0.00845787 0.0404694 16711680
0.399726 -0.00755039 0.0414375 16711680
0.400173 -0.00672981 0.0420358 16711680
0.400426 -0.00597 0.0423746 16711680
0.401004 -0.00511044 0.0431482 16711680
0.40112 -0.00439391 0.043304 16711680
0.401188 -0.00369251 0.0433954 16711680
0.401375 -0.00295466 0.0436466 16711680
0.40122 -0.00232175 0.04344 16711680
0.40021 -0.00194898 0.0420903 16711680
0.399382 -0.0015195 0.0409839 16711680
0.398816 -0.00100967 0.0402273 16711680
0.398784 -0.000337332 0.0401863 16711680
0.398957 0.000396401 0.0404179 16711680
0.399289 0.00117761 0.0408626 16711680
0.399694 0.00198013 0.0414046 16711680
0.400319 0.00284749 0.0422401 16711680
0.40048 0.00357562 0.0424562 16711680
0.400697 0.00432003 0.042747 16711680
0.401341 0.00519079 0.043609 16711680
0.401586 0.00594223 0.043937 16711680
0.401744 0.00666744 0.0441483 16711680
0.402172 0.00747204 0.0447217 16711680
0.402213 0.0081619 0.0447764 16711680
0.402384 0.00889003 0.0450064 16711680
0.402598 0.00963017 0.045293 16711680
0.402594 0.0103062 0.0452876 16711680
0.402965 0.0110915 0.0457848 16711680
0.402914 0.0117535 0.0457169 16711680
0.403145 0.012497 0.0460262 16711680
0.40316 0.013178 0.0460474 16711680
0.403242 0.0138781 0.0461582 16711680
0.403624 0.0146638 0.0466689 16711680
0.403435 0.0152855 0.0464166 16711680
0.403867 0.0160846 0.0469946 16711680
0.403899 0.0167693 0.0470388 16711680
0.404106 0.0175034 0.0473158 16711680
0.404202 0.0182054 0.0474437 16711680
0.404168 0.0188708 0.0473996 16711680
0.40429 0.01958 0.0475637 16711680
0.40437 0.020277 0.047671 16711680
0.404712 0.0210471 0.0481279 16711680
0.404731 0.0217265 0.048154 16711680
0.40485 0.0224337 0.0483143 16711680
0.404913 0.023125 0.0483992 16711680
0.404958 0.023811 0.0484594 16711680
0.404991 0.0244934 0.0485035 16711680
0.404994 0.0251676 0.0485082 16711680
0.40517 0.0258892 0.0487443 16711680
0.405114 0.0265468 0.0486697 16711680
0.405266 0.0272615 0.0488744 16711680
0.405253 0.0279305 0.0488566 16711680
0.405383 0.0286384 0.0490309 16711680
0.405459 0.0293316 0.0491339 16711680
0.405523 0.0300211 0.0492198 16711680
0.406273 0.0308952 0.0502226 16711680
0.407683 0.0319456 0.0521085 16711680
0.408022 0.0327068 0.0525625 16711680
0.408042 0.033382 0.0525897 16711680
0.40811 0.0340697 0.0526801 16711680
0.407984 0.0347058 0.0525118 16711680
0.407987 0.0353762 0.0525163 16711680
0.407869 0.0360147 0.0523595 16711680
0.407841 0.0366768 0.0523224 16711680
0.407734 0.0373181 0.0521798 16711680
0.407727 0.0379858 0.0521715 16711680
0.407567 0.0386131 0.0519571 16711680
0.407481 0.0392602 0.0518432 16711680
0.407378 0.0399028 0.0517061 16711680
0.407281 0.0405468 0.0515764 16711680
0.407142 0.0411804 0.0513918 16711680
0.406866 0.0417784 0.0510224 16711680
0.406853 0.0424446 0.0510063 16711680
0.406428 0.0430051 0.0504386 16711680
0.406473 0.0436859 0.050498 16711680
0.406204 0.0442869 0.0501395 16711680
0.405995 0.0449032 0.0498598 16711680
0.405889 0.0455461 0.0497195 16711680
0.405671 0.0461606 0.0494281 16711680
0.405634 0.0468208 0.0493788 16711680
0.405183 0.0473774 0.048777 16711680
0.405113 0.0480295 0.0486828 16711680
0.404892 0.0486443 0.0483887 16711680
0.404473 0.0492099 0.0478287 16711680
0.404389 0.0498592 0.0477171 16711680
0.404027 0.0504397 0.0472333 16711680
0.403804 0.0510549 0.0469354 16711680
0.40354 0.0516602 0.0465827 16711680
0.403058 0.0522127 0.045939 16711680
0.40302 0.052874 0.0458888 16711680
0.40263 0.0534495 0.0453668 16711680
0.402271 0.0540333 0.0448878 16711680
0.402211 0.0546895 0.0448074 16711680
0.401777 0.0552559 0.0442282 16711680
0.401435 0.0558449 0.0437717 16711680
0.401246 0.0564708 0.0435193 16711680
0.400825 0.0570416 0.0429568 16711680
0.400686 0.0576799 0.0427711 16711680
0.393101 -0.0145914 0.0314461 16711680
0.3939 -0.0136509 0.032517 16711680
0.39536 -0.0125044 0.0344703 16711680
0.396377 -0.0114987 0.0358328 16711680
0.397202 -0.010555 0.0369374 16711680
0.398149 -0.0095745 0.0382053 16711680
0.399087 -0.00859848 0.039461 16711680
0.399737 -0.00771335 0.0403317 16711680
0.40029 -0.00685927 0.0410731 16711680
0.40088 -0.00599477 0.0418639 16711680
0.401603 -0.00509045 0.0428317 16711680
0.402046 -0.00427336 0.0434254 16711680
0.402113 -0.00357252 0.0435154 16711680
0.402646 -0.00272924 0.0442293 16711680
0.402952 -0.0019559 0.0446405 16711680
0.402861 -0.00130457 0.0445182 16711680
0.403184 -0.000527084 0.0449517 16711680
0.402936 7.67112e-05 0.0446205 16711680
0.402677 0.000677437 0.0442747 16711680
0.401488 0.000998139 0.0426849 16711680
0.401084 0.00155658 0.0421453 16711680
0.400862 0.00216988 0.0418481 16711680
0.400911 0.00286469 0.0419142 16711680
0.400842 0.00352404 0.0418224 16711680
0.40097 0.00424212 0.0419943 16711680
0.401635 0.00511959 0.042886 16711680
0.401733 0.00582775 0.0430179 16711680
0.402 0.00658554 0.0433757 16711680
0.402268 0.00734311 0.0437349 16711680
0.402501 0.0080899 0.044047 16711680
0.402819 0.00886121 0.0444735 16711680
0.40289 0.0095596 0.0445688 16711680
0.402996 0.010268 0.0447112 16711680
0.403331 0.0110428 0.0451601 16711680
0.403324 0.0117178 0.0451517 16711680
0.403527 0.0124534 0.0454241 16711680
0.403488 0.0131189 0.045373 16711680
0.403694 0.0138547 0.0456493 16711680
0.403937 0.0146007 0.0459746 16711680
0.40391 0.0152691 0.0459399 16711680
0.404265 0.0160463 0.0464152 16711680
0.404107 0.016677 0.046205 16711680
0.404458 0.0174522 0.0466751 16711680
0.404544 0.0181517 0.0467906 16711680
0.404633 0.0188519 0.0469106 16711680
0.404818 0.0195787 0.047158 16711680
0.404866 0.0202668 0.0472232 16711680
0.405119 0.0210121 0.0475621 16711680
0.405116 0.0216855 0.0475587 16711680
0.405344 0.0224231 0.0478646 16711680
0.405429 0.0231207 0.0479796 16711680
0.405483 0.0238091 0.0480515 16711680
0.405605 0.0245163 0.0482156 16711680
0.405745 0.0252281 0.0484035 16711680
0.406303 0.0260546 0.0491506 16711680
0.406835 0.0268732 0.0498644 16711680
0.406866 0.0275536 0.0499058 16711680
0.407704 0.0284539 0.0510274 16711680
0.408546 0.0293542 0.0521556 16711680
0.408753 0.0300806 0.0524325 16711680
0.408734 0.0307457 0.0524082 16711680
0.408765 0.0314241 0.0524498 16711680
0.408686 0.0320728 0.0523446 16711680
0.408675 0.0327398 0.052331 16711680
0.408576 0.0333832 0.052199 16711680
0.408596 0.0340581 0.0522255 16711680
0.408443 0.0346872 0.0520217 16711680
0.408442 0.0353566 0.0520211 16711680
0.408303 0.0359894 0.0518353 16711680
0.408267 0.0366495 0.0517875 16711680
0.408158 0.0372904 0.0516428 16711680
0.408139 0.0379549 0.0516177 16711680
0.407978 0.0385822 0.0514026 16711680
0.407806 0.0392068 0.0511731 16711680
0.407783 0.0398704 0.0511433 16711680
0.40754 0.0404769 0.0508189 16711680
0.407486 0.0411324 0.0507472 16711680
0.407194 0.0417266 0.050357 16711680
0.407157 0.0423866 0.050308 16711680
0.406832 0.0429728 0.0498735 16711680
0.406706 0.04361 0.0497043 16711680
0.406551 0.0442402 0.049498 16711680
0.406279 0.0448408 0.0491346 16711680
0.406322 0.0455214 0.0491924 16711680
0.40598 0.0461048 0.048736 16711680
0.405888 0.0467513 0.0486128 16711680
0.405619 0.0473534 0.0482527 16711680
0.405369 0.0479608 0.0479188 16711680
0.405268 0.0486057 0.0477853 16711680
0.404786 0.0491555 0.0471395 16711680
0.404705 0.0498057 0.0470319 16711680
0.404378 0.050395 0.0465946 16711680
0.40405 0.0509844 0.046156 16711680
0.403934 0.0516263 0.0460013 16711680
0.403482 0.0521863 0.0453979 16711680
0.403302 0.0528128 0.0451565 16711680
0.403116 0.0534383 0.0449084 16711680
0.402744 0.0540187 0.0444106 16711680
0.402617 0.054659 0.0442421 16711680
0.402168 0.0552216 0.0436411 16711680
0.401736 0.055789 0.0430635 16711680
0.401661 0.0564424 0.042964 16711680
0.401261 0.0570181 0.0424285 16711680
0.393668 -0.0138943 0.0310766 16711680
0.39501 -0.0127839 0.032874 16711680
0.396277 -0.011699 0.0345722 16711680
0.397413 -0.010657 0.0360954 16711680
0.398097 -0.0097585 0.0370114 16711680
0.398984 -0.00879762 0.0382007 16711680
0.39955 -0.00793791 0.03896 16711680
0.400352 -0.00700596 0.0400357 16711680
0.40118 -0.00606769 0.0411446 16711680
0.401792 -0.00519711 0.0419657 16711680
0.402431 -0.00431916 0.0428232 16711680
0.402579 -0.00359353 0.0430212 16711680
0.403265 -0.0027031 0.0439411 16711680
0.403769 -0.00186929 0.044618 16711680
0.403976 -0.00112724 0.0448954 16711680
0.404277 -0.000356853 0.0452995 16711680
0.40469 0.000446826 0.0458534 16711680
0.404579 0.00109139 0.0457057 16711680
0.404723 0.00181285 0.045899 16711680
0.404706 0.00248566 0.0458777 16711680
0.40473 0.00317049 0.0459099 16711680
0.404498 0.00377887 0.045601 16711680
0.404477 0.0044502 0.0455734 16711680
0.403895 0.00495425 0.0447937 16711680
0.402799 0.00530651 0.0433265 16711680
0.402527 0.00590476 0.0429639 16711680
0.402571 0.00659639 0.0430231 16711680
0.402944 0.00738516 0.043524 16711680
0.402948 0.00806457 0.0435305 16711680
0.403198 0.00881606 0.043866 16711680
0.403354 0.00953937 0.0440751 16711680
0.403504 0.0102609 0.0442772 16711680
0.403824 0.0110314 0.0447068 16711680
0.403745 0.0116855 0.0446014 16711680
0.403962 0.0124251 0.0448924 16711680
0.403844 0.0130678 0.0447351 16711680
0.404181 0.0138416 0.0451874 16711680
0.404362 0.01457 0.0454313 16711680
0.40445 0.0152713 0.0455498 16711680
0.404844 0.0160596 0.0460775 16711680
0.404931 0.01676 0.0461949 16711680
0.405149 0.0174973 0.0464879 16711680
0.405316 0.0182197 0.0467124 16711680
0.405377 0.0189117 0.0467943 16711680
0.40571 0.0196803 0.0472411 16711680
0.405922 0.0204142 0.0475259 16711680
0.406066 0.0211287 0.0477194 16711680
0.406666 0.0219703 0.0485238 16711680
0.407365 0.0228387 0.0494612 16711680
0.40757 0.0235681 0.0497357 16711680
0.408234 0.0244247 0.0506258 16711680
0.409142 0.0253479 0.051844 16711680
0.409549 0.026131 0.0523889 16711680
0.40949 0.0267855 0.0523111 16711680
0.409464 0.0274488 0.0522767 16711680
0.409344 0.0280864 0.0521168 16711680
0.409409 0.0287746 0.0522045 16711680
0.409309 0.0294176 0.0520706 16711680
0.409331 0.0300938 0.0521008 16711680
0.40922 0.030734 0.0519534 16711680
0.409228 0.0314063 0.051965 16711680
0.409125 0.0320486 0.0518275 16711680
0.409138 0.032722 0.0518456 16711680
0.40901 0.0333576 0.0516744 16711680
0.409016 0.034029 0.0516831 16711680
0.408832 0.0346499 0.0514377 16711680
0.408819 0.0353161 0.0514201 16711680
0.408681 0.0359493 0.0512362 16711680
0.408673 0.036617 0.0512266 16711680
0.408558 0.0372565 0.0510737 16711680
0.408434 0.0378933 0.050907 16711680
0.408327 0.038535 0.0507644 16711680
0.408146 0.0391575 0.0505232 16711680
0.408109 0.0398173 0.0504735 16711680
0.40785 0.0404199 0.0501281 16711680
0.407848 0.041089 0.0501262 16711680
0.407542 0.0416796 0.0497167 16711680
0.407428 0.04232 0.0495645 16711680
0.407232 0.0429392 0.0493019 16711680
0.407114 0.043579 0.0491455 16711680
0.40696 0.0442093 0.0489389 16711680
0.406642 0.0447984 0.0485145 16711680
0.406667 0.0454745 0.0485481 16711680
0.406311 0.0460544 0.0480722 16711680
0.406248 0.0467083 0.0479877 16711680
0.405979 0.0473105 0.0476274 16711680
0.40564 0.0478959 0.0471753 16711680
0.405636 0.0485648 0.0471694 16711680
0.405185 0.0491227 0.0465662 16711680
0.405015 0.0497508 0.0463392 16711680
0.404801 0.0503682 0.0460532 16711680
0.404365 0.050931 0.0454693 16711680
0.404261 0.0515762 0.0453314 16711680
0.403838 0.0521429 0.0447643 16711680
0.403569 0.0527482 0.0444057 16711680
0.403414 0.0533814 0.0441986 16711680
0.403008 0.0539537 0.0436552 16711680
0.402832 0.0545821 0.0434192 16711680
0.402493 0.0551715 0.0429657 16711680
0.401952 0.0557128 0.0422424 16711680
0.401003 0.0561571 0.0409721 16711680
0.394117 -0.0139231 0.0305465 16711680
0.394973 -0.0129651 0.0316958 16711680
0.396146 -0.011909 0.0332695 16711680
0.397202 -0.0108915 0.0346867 16711680
0.398095 -0.00992694 0.0358838 16711680
0.399067 -0.00893882 0.0371886 16711680
0.399765 -0.00803763 0.0381258 16711680
0.400576 -0.00710267 0.0392139 16711680
0.401274 -0.00620404 0.0401504 16711680
0.401866 -0.00533926 0.0409452 16711680
0.402235 -0.00454435 0.0414401 16711680
0.402933 -0.00364873 0.0423774 16711680
0.403586 -0.00276825 0.0432538 16711680
0.404106 -0.00192952 0.0439516 16711680
0.40437 -0.00116974 0.0443066 16711680
0.404731 -0.000380814 0.0447923 16711680
0.405243 0.000452965 0.0454789 16711680
0.405359 0.00116628 0.0456359 16711680
0.405542 0.00189942 0.0458822 16711680
0.406038 0.00272626 0.0465474 16711680
0.406037 0.00340331 0.0465478 16711680
0.406341 0.00417131 0.0469558 16711680
0.406403 0.00486663 0.0470403 16711680
0.406421 0.00554857 0.0470654 16711680
0.406491 0.00624558 0.0471591 16711680
0.406308 0.00686765 0.0469151 16711680
0.40626 0.00752977 0.0468516 16711680
0.406169 0.00817925 0.046731 16711680
0.405909 0.00877875 0.0463825 16711680
0.405816 0.00942788 0.0462592 16711680
0.405637 0.0100517 0.0460203 16711680
0.405582 0.0107119 0.045947 16711680
0.405447 0.0113488 0.0457672 16711680
0.405478 0.012034 0.0458094 16711680
0.405237 0.0126402 0.045487 16711680
0.405332 0.0133439 0.0456157 16711680
0.405345 0.0140235 0.0456331 16711680
0.406223 0.0149519 0.0468122 16711680
0.407147 0.0158916 0.0480506 16711680
0.408218 0.0168721 0.0494874 16711680
0.408732 0.017692 0.0501771 16711680
0.408759 0.0183726 0.0502146 16711680
0.4091 0.0191421 0.050673 16711680
0.409416 0.0199039 0.0510973 16711680
0.409433 0.0205806 0.0511204 16711680
0.409575 0.0212926 0.0513123 16711680
0.409581 0.0219658 0.0513204 16711680
0.409688 0.0226673 0.0514643 16711680
0.40975 0.0233561 0.0515491 16711680
0.409736 0.0240234 0.0515305 16711680
0.409949 0.0247537 0.0518175 16711680
0.409964 0.0254287 0.051838 16711680
0.410235 0.0261743 0.0522021 16711680
0.410073 0.0268003 0.0519861 16711680
0.409955 0.0274384 0.0518291 16711680
0.409814 0.0280701 0.0516396 16711680
0.409906 0.0287658 0.0517647 16711680
0.409721 0.0293857 0.0515171 16711680
0.409762 0.0300673 0.0515733 16711680
0.409666 0.0307115 0.0514451 16711680
0.409707 0.0313928 0.0515012 16711680
0.409555 0.0320219 0.0512978 16711680
0.40954 0.0326878 0.0512782 16711680
0.409424 0.0333267 0.0511235 16711680
0.40943 0.0339982 0.0511317 16711680
0.40926 0.034623 0.0509055 16711680
0.409177 0.0352706 0.0507939 16711680
0.409133 0.0359289 0.0507362 16711680
0.408991 0.0365611 0.0505459 16711680
0.408921 0.0372126 0.0504539 16711680
0.408697 0.0378235 0.0501539 16711680
0.408707 0.0384957 0.0501672 16711680
0.408477 0.0391055 0.0498598 16711680
0.408493 0.0397794 0.0498818 16711680
0.408247 0.0403853 0.049553 16711680
0.408205 0.0410441 0.0494971 16711680
0.407903 0.041636 0.0490937 16711680
0.407756 0.0422678 0.0488964 16711680
0.407614 0.0429013 0.0487071 16711680
0.407426 0.0435229 0.0484552 16711680
0.407378 0.0441808 0.0483925 16711680
0.407045 0.0447659 0.0479468 16711680
0.407047 0.0454362 0.0479496 16711680
0.406749 0.0460309 0.0475509 16711680
0.406635 0.0466721 0.0473988 16711680
0.406425 0.0472894 0.0471185 16711680
0.406053 0.0478663 0.0466202 16711680
0.405975 0.048517 0.0465162 16711680
0.405639 0.0491035 0.0460659 16711680
0.405358 0.0497041 0.0456899 16711680
0.405221 0.0503405 0.0455067 16711680
0.404751 0.0508952 0.0448779 16711680
0.404602 0.0515292 0.0446787 16711680
0.404325 0.0521319 0.0443074 16711680
0.404004 0.0527243 0.0438775 16711680
0.403759 0.0533356 0.04355 16711680
0.403387 0.0539162 0.0430515 16711680
0.402671 0.0544144 0.0420933 16711680
0.401632 0.0548353 0.0407006 16711680
0.395049 -0.0131109 0.0306677 16711680
0.396342 -0.0120167 0.0324035 16711680
0.397382 -0.0110039 0.0337994 16711680
0.398335 -0.0100197 0.0350802 16711680
0.399154 -0.00907931 0.0361794 16711680
0.399979 -0.00813797 0.0372887 16711680
0.40079 -0.00720263 0.0383776 16711680
0.401365 -0.00634164 0.0391505 16711680
0.401803 -0.00552404 0.039739 16711680
0.402435 -0.00464717 0.040589 16711680
0.403169 -0.00374046 0.041574 16711680
0.403776 -0.00287351 0.0423905 16711680
0.404215 -0.00205922 0.0429806 16711680
0.404514 -0.00128853 0.0433819 16711680
0.404974 -0.000469059 0.0440013 16711680
0.40551 0.00037244 0.0447214 16711680
0.405681 0.00110236 0.0449513 16711680
0.405929 0.00185549 0.0452858 16711680
0.406415 0.00267947 0.045938 16711680
0.406547 0.00339651 0.0461166 16711680
0.406847 0.00416338 0.0465198 16711680
0.407023 0.00489283 0.0467573 16711680
0.407027 0.00557053 0.0467638 16711680
0.407324 0.00633529 0.0471634 16711680
0.407276 0.0069972 0.0471004 16711680
0.407751 0.00781366 0.0477383 16711680
0.408079 0.00858602 0.0481796 16711680
0.408184 0.00929204 0.0483214 16711680
0.408564 0.0100785 0.0488317 16711680
0.4087 0.010793 0.0490156 16711680
0.408773 0.0114887 0.0491149 16711680
0.409046 0.0122424 0.049482 16711680
0.408915 0.0128782 0.049307 16711680
0.409155 0.0136217 0.0496299 16711680
0.40907 0.0142705 0.0495163 16711680
0.409393 0.0150374 0.0499514 16711680
0.409598 0.0157693 0.0502266 16711680
0.40964 0.0164543 0.050284 16711680
0.409856 0.0171891 0.0505756 16711680
0.409868 0.017865 0.0505925 16711680
0.409993 0.0185728 0.0507605 16711680
0.410001 0.0192474 0.0507725 16711680
0.410109 0.0199501 0.0509188 16711680
0.41019 0.0206447 0.0510274 16711680
0.41018 0.0213136 0.0510149 16711680
0.410225 0.0219981 0.0510772 16711680
0.410216 0.0226668 0.0510648 16711680
0.410264 0.0233518 0.0511309 16711680
0.410179 0.0239993 0.0510174 16711680
0.410361 0.024721 0.0512621 16711680
0.410218 0.0253524 0.0510713 16711680
0.410493 0.0260995 0.0514417 16711680
0.410382 0.0267396 0.0512935 16711680
0.410378 0.0274092 0.0512893 16711680
0.410197 0.0280301 0.0510467 16711680
0.410283 0.0287242 0.0511633 16711680
0.410129 0.0293527 0.0509574 16711680
0.410187 0.0300388 0.0510359 16711680
0.410057 0.0306739 0.0508623 16711680
0.410105 0.0313572 0.0509276 16711680
0.409978 0.031993 0.0507576 16711680
0.409971 0.0326612 0.0507489 16711680
0.40984 0.0332964 0.0505747 16711680
0.409792 0.0339537 0.0505114 16711680
0.409644 0.0345842 0.0503136 16711680
0.409589 0.0352396 0.0502408 16711680
0.409505 0.0358872 0.0501285 16711680
0.409354 0.0365171 0.049926 16711680
0.409311 0.0371756 0.0498688 16711680
0.409104 0.0377912 0.0495923 16711680
0.409091 0.0384578 0.0495763 16711680
0.408875 0.0390712 0.0492874 16711680
0.408872 0.0397401 0.049283 16711680
0.408631 0.0403473 0.0489603 16711680
0.408509 0.0409856 0.0487976 16711680
0.408296 0.0416005 0.0485125 16711680
0.408096 0.0422191 0.0482458 16711680
0.408055 0.0428783 0.0481905 16711680
0.407711 0.0434604 0.0477307 16711680
0.407704 0.0441285 0.0477214 16711680
0.407441 0.0447317 0.0473698 16711680
0.407408 0.0453933 0.0473256 16711680
0.407178 0.0460052 0.0470181 16711680
0.406958 0.0466197 0.0467231 16711680
0.406844 0.0472611 0.0465705 16711680
0.406456 0.047834 0.0460508 16711680
0.406377 0.0484846 0.0459456 16711680
0.406062 0.0490764 0.0455235 16711680
0.405696 0.0496561 0.0450338 16711680
0.405601 0.050303 0.0449067 16711680
0.405142 0.0508603 0.0442916 16711680
0.404931 0.0514792 0.0440089 16711680
0.404713 0.0520965 0.0437168 16711680
0.404302 0.0526671 0.0431669 16711680
0.404 0.0532645 0.0427617 16711680
0.403327 0.0537724 0.0418601 16711680
0.396591 -0.0121077 0.0316081 16711680
0.397443 -0.0111535 0.0327526 16711680
0.398437 -0.010156 0.0340899 16711680
0.399338 -0.0091894 0.0353006 16711680
0.400108 -0.00826502 0.0363358 16711680
0.400883 -0.00734025 0.0373782 16711680
0.401296 -0.00652885 0.0379349 16711680
0.401963 -0.00564006 0.0388312 16711680
0.402697 -0.00473139 0.0398189 16711680
0.403261 -0.00387633 0.0405779 16711680
0.403887 -0.00300354 0.0414187 16711680
0.404165 -0.00223798 0.0417937 16711680
0.404686 -0.00139883 0.0424947 16711680
0.405257 -0.000545293 0.0432632 16711680
0.405522 0.00021413 0.0436198 16711680
0.405854 0.000993282 0.0440662 16711680
0.406347 0.0018208 0.0447303 16711680
0.406535 0.00255528 0.0449836 16711680
0.40672 0.00328851 0.0452332 16711680
0.407191 0.00410697 0.0458663 16711680
0.40732 0.00482249 0.0460408 16711680
0.407429 0.00553188 0.0461892 16711680
0.407679 0.00628263 0.0465255 16711680
0.407697 0.0069643 0.0465513 16711680
0.408226 0.00779694 0.0472625 16711680
0.408448 0.00853813 0.0475621 16711680
0.408587 0.00925434 0.0477499 16711680
0.409001 0.0100511 0.0483071 16711680
0.409254 0.0107996 0.0486469 16711680
0.409347 0.0115012 0.0487729 16711680
0.409534 0.01223 0.0490257 16711680
0.409485 0.0128896 0.0489608 16711680
0.40975 0.0136405 0.0493184 16711680
0.409648 0.0142844 0.0491819 16711680
0.409927 0.0150383 0.0495572 16711680
0.410098 0.0157609 0.049789 16711680
0.41018 0.0164572 0.0498992 16711680
0.410325 0.0171715 0.0500948 16711680
0.410274 0.0178294 0.0500271 16711680
0.410475 0.0185595 0.0502994 16711680
0.410456 0.0192263 0.0502747 16711680
0.41057 0.0199305 0.0504279 16711680
0.410477 0.0205762 0.0503039 16711680
0.410582 0.0212779 0.0504467 16711680
0.4106 0.0219545 0.0504712 16711680
0.410602 0.0226268 0.0504752 16711680
0.410658 0.0233139 0.0505511 16711680
0.4106 0.0239691 0.0504742 16711680
0.410666 0.0246587 0.0505633 16711680
0.410589 0.0253086 0.0504616 16711680
0.410733 0.0260196 0.0506564 16711680
0.41067 0.0266731 0.0505725 16711680
0.410705 0.0273535 0.0506198 16711680
0.41058 0.0279901 0.0504539 16711680
0.410579 0.0286603 0.0504526 16711680
0.410464 0.0292995 0.0502986 16711680
0.410486 0.0299762 0.0503294 16711680
0.410394 0.0306219 0.0502076 16711680
0.410403 0.0312945 0.0502195 16711680
0.410329 0.031945 0.0501218 16711680
0.410269 0.0325992 0.0500422 16711680
0.410219 0.0332561 0.0499763 16711680
0.410186 0.0339173 0.0499324 16711680
0.410069 0.0345562 0.0497758 16711680
0.409896 0.0351803 0.0495442 16711680
0.409828 0.0358324 0.0494541 16711680
0.409586 0.0364384 0.0491294 16711680
0.409615 0.0371162 0.0491694 16711680
0.409453 0.0377437 0.0489528 16711680
0.409498 0.0384256 0.0490148 16711680
0.409224 0.0390238 0.0486469 16711680
0.409171 0.03968 0.0485768 16711680
0.408986 0.0403018 0.0483286 16711680
0.408788 0.0409206 0.048064 16711680
0.408679 0.0415625 0.0479188 16711680
0.408414 0.0421642 0.0475628 16711680
0.408442 0.0428417 0.0476025 16711680
0.408097 0.0434232 0.047139 16711680
0.408075 0.0440878 0.0471107 16711680
0.407787 0.0446847 0.0467254 16711680
0.407734 0.0453415 0.0466549 16711680
0.407525 0.0459587 0.046375 16711680
0.407213 0.0465501 0.0459561 16711680
0.407224 0.0472232 0.045972 16711680
0.406832 0.0477952 0.0454465 16711680
0.406789 0.0484548 0.0453891 16711680
0.406468 0.0490453 0.0449595 16711680
0.406031 0.0496072 0.0443729 16711680
0.406004 0.0502711 0.0443368 16711680
0.405563 0.050833 0.043746 16711680
0.405285 0.0514354 0.043373 16711680
0.405141 0.0520711 0.0431809 16711680
0.404403 0.0525616 0.0421906 16711680
0.397522 -0.0112975 0.0317298 16711680
0.398692 -0.0102447 0.0333033 16711680
0.399375 -0.00934571 0.0342225 16711680
0.399909 -0.00849423 0.0349419 16711680
0.400699 -0.00756395 0.0360062 16711680
0.401409 -0.0066601 0.0369616 16711680
0.402158 -0.00574538 0.0379695 16711680
0.40295 -0.0048185 0.0390359 16711680
0.4034 -0.00399819 0.0396423 16711680
0.403748 -0.00321016 0.0401111 16711680
0.404391 -0.00233236 0.0409765 16711680
0.404972 -0.00147435 0.0417598 16711680
0.405318 -0.000689179 0.0422263 16711680
0.405655 9.24468e-05 0.0426798 16711680
0.4061 0.000906289 0.0432788 16711680
0.406626 0.00174391 0.0439873 16711680
0.406707 0.00244638 0.0440973 16711680
0.407066 0.00323236 0.0445813 16711680
0.40745 0.00402504 0.0450985 16711680
0.407494 0.00471544 0.0451593 16711680
0.407838 0.00549516 0.0456233 16711680
0.408007 0.00622195 0.0458513 16711680
0.408093 0.006924 0.0459688 16711680
0.408563 0.00773939 0.0466014 16711680
0.408742 0.00846788 0.0468427 16711680
0.408876 0.00918284 0.0470241 16711680
0.409152 0.0099394 0.047397 16711680
0.409375 0.0106796 0.0476972 16711680
0.409714 0.0114534 0.0481538 16711680
0.409919 0.0121876 0.048431 16711680
0.409847 0.0128406 0.0483354 16711680
0.410091 0.0135853 0.0486642 16711680
0.409953 0.0142192 0.0484802 16711680
0.410192 0.0149619 0.048803 16711680
0.41029 0.0156634 0.0489351 16711680
0.4105 0.016397 0.0492193 16711680
0.410597 0.0170978 0.0493506 16711680
0.410583 0.0177666 0.0493331 16711680
0.410815 0.0185054 0.0496461 16711680
0.410757 0.0191613 0.0495692 16711680
0.410986 0.0198985 0.0498781 16711680
0.41079 0.020515 0.049615 16711680
0.410952 0.0212327 0.0498337 16711680
0.410902 0.0218906 0.0497676 16711680
0.410975 0.0225828 0.0498669 16711680
0.410936 0.0232435 0.0498151 16711680
0.410999 0.0239328 0.0499017 16711680
0.410797 0.024548 0.0496308 16711680
0.410924 0.0252548 0.0498033 16711680
0.410892 0.0259171 0.0497608 16711680
0.410982 0.026613 0.0498821 16711680
0.410846 0.0272466 0.0497004 16711680
0.410907 0.0279344 0.0497839 16711680
0.410745 0.028561 0.0495672 16711680
0.410784 0.0292425 0.0496207 16711680
0.41069 0.0298878 0.0494957 16711680
0.410754 0.0305759 0.049583 16711680
0.41065 0.0312182 0.0494434 16711680
0.410704 0.0319034 0.0495172 16711680
0.410654 0.0325602 0.0494503 16711680
0.410649 0.0332292 0.0494446 16711680
0.410505 0.0338611 0.0492531 16711680
0.410463 0.03452 0.0491968 16711680
0.410198 0.0351199 0.0488423 16711680
0.410194 0.0357888 0.0488367 16711680
0.409978 0.0364022 0.0485486 16711680
0.409966 0.0370692 0.0485334 16711680
0.409804 0.0376966 0.0483155 16711680
0.409795 0.0383646 0.0483052 16711680
0.409589 0.0389807 0.0480289 16711680
0.40952 0.0396328 0.0479364 16711680
0.409348 0.0402583 0.047707 16711680
0.409145 0.0408757 0.0474344 16711680
0.40909 0.0415317 0.0473616 16711680
0.408799 0.0421269 0.0469718 16711680
0.408784 0.0427932 0.0469525 16711680
0.408478 0.043385 0.0465417 16711680
0.408353 0.0440233 0.0463744 16711680
0.408193 0.0446528 0.0461601 16711680
0.408013 0.0452775 0.0459197 16711680
0.407896 0.0459182 0.045763 16711680
0.407586 0.0465103 0.0453475 16711680
0.407613 0.0471874 0.0453843 16711680
0.40728 0.0477742 0.0449374 16711680
0.407108 0.0484016 0.0447066 16711680
0.406896 0.0490193 0.0444226 16711680
0.406452 0.0495796 0.0438267 16711680
0.406164 0.0501791 0.0434408 16711680
0.405901 0.0507851 0.0430883 16711680
0.398587 -0.010446 0.0320325 16711680
0.399352 -0.00952065 0.0330638 16711680
0.400083 -0.00860733 0.0340486 16711680
0.40088 -0.00767469 0.0351223 16711680
0.401656 -0.00674984 0.0361681 16711680
0.402422 -0.00582936 0.0372003 16711680
0.403019 -0.00496253 0.0380043 16711680
0.403447 -0.00414836 0.0385827 16711680
0.403898 -0.0033282 0.0391908 16711680
0.404645 -0.00241819 0.040197 16711680
0.405283 -0.00154269 0.0410566 16711680
0.405471 -0.000805408 0.041311 16711680
0.40578 -3.15905e-05 0.0417289 16711680
0.406321 0.000811696 0.0424577 16711680
0.406676 0.00159791 0.0429363 16711680
0.406939 0.00235561 0.0432911 16711680
0.407403 0.00317338 0.0439167 16711680
0.407601 0.00391057 0.0441848 16711680
0.407756 0.00463453 0.0443952 16711680
0.408178 0.00543776 0.0449643 16711680
0.408142 0.00610381 0.0449172 16711680
0.408492 0.00688449 0.0453893 16711680
0.408829 0.00766063 0.0458438 16711680
0.40891 0.00836042 0.0459539 16711680
0.409231 0.00913098 0.0463877 16711680
0.409391 0.00985333 0.0466036 16711680
0.409507 0.0105625 0.0467609 16711680
0.409961 0.0113705 0.0473735 16711680
0.410062 0.0120746 0.0475111 16711680
0.410243 0.0128013 0.0477546 16711680
0.410374 0.0135135 0.0479324 16711680
0.410328 0.0141742 0.0478724 16711680
0.410514 0.0149016 0.0481231 16711680
0.410389 0.0155391 0.0479561 16711680
0.410657 0.0162899 0.0483189 16711680
0.410755 0.0169911 0.0484514 16711680
0.410886 0.0177017 0.0486293 16711680
0.411053 0.0184219 0.0488542 16711680
0.411029 0.0190879 0.0488238 16711680
0.41127 0.0198288 0.0491494 16711680
0.411094 0.0204511 0.0489131 16711680
0.411287 0.021178 0.0491747 16711680
0.411191 0.021823 0.0490466 16711680
0.41131 0.0225284 0.0492079 16711680
0.411128 0.0231492 0.0489639 16711680
0.411353 0.0238837 0.0492675 16711680
0.411128 0.0244928 0.0489664 16711680
0.411286 0.0252082 0.0491799 16711680
0.411079 0.0258223 0.0489025 16711680
0.411241 0.0265384 0.0491215 16711680
0.41112 0.0271764 0.0489597 16711680
0.411222 0.0278756 0.0490986 16711680
0.411022 0.0284919 0.0488303 16711680
0.411198 0.0292111 0.0490685 16711680
0.411017 0.0298324 0.0488248 16711680
0.411094 0.0305242 0.0489297 16711680
0.410995 0.0311683 0.0487982 16711680
0.411079 0.0318617 0.0489128 16711680
0.410984 0.0325067 0.048786 16711680
0.411064 0.0331986 0.0488945 16711680
0.410939 0.0338354 0.0487272 16711680
0.410857 0.0344838 0.0486175 16711680
0.410566 0.0350768 0.0482277 16711680
0.410567 0.0357472 0.0482291 16711680
0.410346 0.0363592 0.0479331 16711680
0.410265 0.0370081 0.0478249 16711680
0.410129 0.0376427 0.0476432 16711680
0.410107 0.0383073 0.0476148 16711680
0.409986 0.0389459 0.0474533 16711680
0.409789 0.0395647 0.0471886 16711680
0.409729 0.0402194 0.0471091 16711680
0.40947 0.0408226 0.0467622 16711680
0.40946 0.0414903 0.0467496 16711680
0.409107 0.0420695 0.0462756 16711680
0.409001 0.0427127 0.0461342 16711680
0.408803 0.0433324 0.0458688 16711680
0.408739 0.0439863 0.045783 16711680
0.408613 0.0446245 0.0456142 16711680
0.408321 0.0452208 0.0452228 16711680
0.408287 0.0458826 0.0451776 16711680
0.408033 0.0464889 0.0448368 16711680
0.407945 0.0471374 0.0447199 16711680
0.407663 0.0477371 0.0443414 16711680
0.407382 0.0483374 0.0439645 16711680
0.407237 0.0489719 0.0437701 16711680
0.406571 0.049477 0.0428751 16711680
0.399646 -0.00959703 0.0323291 16711680
0.400438 -0.0086641 0.0333982 16711680
0.401085 -0.00777796 0.0342704 16711680
0.40182 -0.0068655 0.0352615 16711680
0.402631 -0.00593054 0.0363561 16711680
0.403016 -0.0051288 0.0368755 16711680
0.403526 -0.00428897 0.0375646 16711680
0.404132 -0.00342074 0.0383819 16711680
0.404774 -0.00254256 0.0392478 16711680
0.405472 -0.00164804 0.0401902 16711680
0.405678 -0.000905156 0.0404683 16711680
0.40609 -9.97484e-05 0.041025 16711680
0.406604 0.000735849 0.041719 16711680
0.406726 0.00145164 0.0418841 16711680
0.407257 0.00229082 0.0426008 16711680
0.407741 0.00311485 0.0432537 16711680
0.407835 0.00382084 0.0433813 16711680
0.408034 0.00455818 0.0436511 16711680
0.408428 0.0053533 0.044183 16711680
0.408416 0.00602672 0.0441684 16711680
0.408848 0.00683215 0.0447519 16711680
0.409205 0.00761449 0.0452343 16711680
0.40923 0.00829789 0.0452691 16711680
0.40961 0.00908583 0.0457817 16711680
0.409717 0.00979298 0.0459278 16711680
0.409837 0.0105034 0.0460904 16711680
0.41018 0.011279 0.0465536 16711680
0.410007 0.0119033 0.0463222 16711680
0.410666 0.0127701 0.0472114 16711680
0.410777 0.0134765 0.047362 16711680
0.410741 0.0141402 0.0473152 16711680
0.410889 0.0148567 0.0475149 16711680
0.410728 0.0154839 0.0472994 16711680
0.410915 0.0162115 0.0475531 16711680
0.410993 0.0169074 0.0476599 16711680
0.411181 0.0176342 0.0479132 16711680
0.411201 0.0183131 0.047942 16711680
0.411398 0.0190421 0.0482091 16711680
0.411528 0.0197515 0.0483847 16711680
0.4115 0.0204162 0.0483489 16711680
0.41158 0.021111 0.0484573 16711680
0.411449 0.0217465 0.0482827 16711680
0.411541 0.0224444 0.0484073 16711680
0.411457 0.0230931 0.048296 16711680
0.411613 0.0238084 0.0485065 16711680
0.411482 0.0244438 0.0483315 16711680
0.411631 0.0251568 0.0485328 16711680
0.411418 0.0257694 0.0482472 16711680
0.411597 0.0264904 0.0484896 16711680
0.411454 0.0271224 0.0482982 16711680
0.411555 0.0278217 0.0484364 16711680
0.411342 0.0284345 0.0481504 16711680
0.41153 0.029157 0.0484046 16711680
0.411276 0.0297589 0.048064 16711680
0.411356 0.0304515 0.0481719 16711680
0.411168 0.0310717 0.0479207 16711680
0.411349 0.0317915 0.0481654 16711680
0.411295 0.0324477 0.0480938 16711680
0.411527 0.0331807 0.0484079 16711680
0.411423 0.0338231 0.0482682 16711680
0.411279 0.034455 0.0480757 16711680
0.410904 0.0350257 0.0475723 16711680
0.41084 0.0356791 0.0474867 16711680
0.410616 0.0362903 0.0471859 16711680
0.410483 0.0369257 0.0470077 16711680
0.410492 0.0375988 0.0470219 16711680
0.410338 0.0382287 0.0468147 16711680
0.410317 0.0388938 0.046788 16711680
0.410135 0.0395167 0.0465443 16711680
0.410111 0.0401809 0.0465133 16711680
0.409804 0.0407716 0.0461006 16711680
0.409752 0.0414285 0.0460315 16711680
0.409432 0.0420164 0.0456015 16711680
0.409351 0.0426662 0.0454938 16711680
0.409248 0.0433101 0.0453553 16711680
0.409004 0.0439184 0.0450287 16711680
0.408986 0.0445843 0.045005 16711680
0.408738 0.0451917 0.0446718 16711680
0.408698 0.0458523 0.0446196 16711680
0.408429 0.0464548 0.0442584 16711680
0.40827 0.0470854 0.0440453 16711680
0.407934 0.0476717 0.0435941 16711680
0.407065 0.048125 0.0424243 16711680
0.400831 -0.00870943 0.0327967 16711680
0.40137 -0.00785634 0.0335259 16711680
0.40197 -0.00698549 0.0343361 16711680
0.402341 -0.00618654 0.0348381 16711680
0.403091 -0.00527111 0.0358508 16711680
0.403727 -0.00439218 0.0367097 16711680
0.404411 -0.0034996 0.0376329 16711680
0.404893 -0.00266987 0.0382853 16711680
0.405309 -0.00186157 0.0388466 16711680
0.405778 -0.00103754 0.039481 16711680
0.406413 -0.000164032 0.040338 16711680
0.40674 0.00061512 0.0407813 16711680
0.406881 0.00133699 0.040972 16711680
0.407439 0.00218469 0.0417258 16711680
0.407868 0.00299248 0.0423054 16711680
0.407885 0.00367573 0.0423295 16711680
0.408385 0.00450385 0.0430057 16711680
0.408698 0.00527507 0.0434297 16711680
0.408719 0.00595832 0.0434586 16711680
0.409058 0.00673619 0.0439167 16711680
0.409336 0.00749534 0.0442929 16711680
0.409478 0.00821391 0.0444864 16711680
0.409852 0.00900063 0.0449928 16711680
0.409842 0.0096733 0.04498 16711680
0.410133 0.0104345 0.0453742 16711680
0.410292 0.0111564 0.0455898 16711680
0.410376 0.011856 0.0457045 16711680
0.411088 0.0127385 0.046666 16711680
0.411089 0.0134129 0.0466678 16711680
0.411157 0.0141067 0.0467609 16711680
0.411256 0.0148095 0.0468961 16711680
0.411151 0.0154529 0.0467554 16711680
0.411309 0.0161723 0.0469707 16711680
0.411333 0.0168527 0.0470041 16711680
0.411505 0.0175754 0.0472374 16711680
0.411473 0.0182394 0.0471956 16711680
0.411731 0.018986 0.0475446 16711680
0.411707 0.0196519 0.0475135 16711680
0.411772 0.0203431 0.0476028 16711680
0.411786 0.0210197 0.0476232 16711680
0.411782 0.0216909 0.0476185 16711680
0.411725 0.0223473 0.047543 16711680
0.411735 0.0230225 0.0475584 16711680
0.411821 0.0237186 0.0476754 16711680
0.411701 0.0243571 0.0475142 16711680
0.411831 0.0250652 0.0476909 16711680
0.411692 0.0256986 0.0475055 16711680
0.411814 0.0264041 0.0476713 16711680
0.411685 0.0270402 0.0474986 16711680
0.411709 0.0277183 0.0475318 16711680
0.411506 0.0283343 0.0472599 16711680
0.411166 0.0289128 0.0468022 16711680
0.411268 0.0296121 0.0469406 16711680
0.410732 0.0301381 0.0462197 16711680
0.410877 0.0308491 0.046416 16711680
0.410646 0.0314585 0.0461066 16711680
0.411381 0.0323281 0.0470986 16711680
0.411904 0.0331397 0.0478054 16711680
0.411759 0.0337714 0.0476112 16711680
0.411665 0.0344168 0.0474858 16711680
0.41125 0.0349765 0.0469265 16711680
0.411013 0.0355844 0.0466088 16711680
0.410983 0.0362472 0.0465698 16711680
0.41076 0.0368588 0.0462693 16711680
0.410842 0.0375514 0.0463822 16711680
0.410642 0.0381693 0.0461129 16711680
0.410652 0.0388426 0.0461278 16711680
0.410382 0.0394427 0.0457655 16711680
0.4104 0.0401181 0.045791 16711680
0.410153 0.0407245 0.0454592 16711680
0.410064 0.0413719 0.0453398 16711680
0.409837 0.0419839 0.0450348 16711680
0.409586 0.0425901 0.0446985 16711680
0.409569 0.0432564 0.0446761 16711680
0.409312 0.0438614 0.0443316 16711680
0.409321 0.0445343 0.0443441 16711680
0.409133 0.0451573 0.0440922 16711680
0.40887 0.0457613 0.043739 16711680
0.408383 0.0463089 0.0430833 16711680
0.401713 -0.00791705 0.0328579 16711680
0.402015 -0.00713837 0.0332675 16711680
0.402532 -0.00629359 0.0339675 16711680
0.403358 -0.0053544 0.0350832 16711680
0.403948 -0.00448927 0.0358812 16711680
0.404583 -0.00361127 0.0367397 16711680
0.404906 -0.0028303 0.0371767 16711680
0.405399 -0.00199762 0.0378442 16711680
0.406042 -0.00112006 0.0387138 16711680
0.406567 -0.000279605 0.0394238 16711680
0.40675 0.000455737 0.0396714 16711680
0.407132 0.0012514 0.0401889 16711680
0.40772 0.00210854 0.0409842 16711680
0.407765 0.00280073 0.0410458 16711680
0.408108 0.00358251 0.0415101 16711680
0.40862 0.0044145 0.0422029 16711680
0.40876 0.00513402 0.0423928 16711680
0.409021 0.00588948 0.0427465 16711680
0.409238 0.0066314 0.0430413 16711680
