# .PCD v0.7 - Point Cloud Data file format
VERSION 0.7
FIELDS x y z rgb
SIZE 4 4 4 4
TYPE F F F F
COUNT 1 1 1 1
WIDTH 718
HEIGHT 1
VIEWPOINT 0 0 0 1 0 0 0
POINTS 718
DATA ascii
0.401036 0.00169161 0.0240291 16711680
0.39857 0.0222358 0.0207434 16711680
0.398447 0.0228868 0.0205786 16711680
0.398765 0.0236592 0.0210122 16711680
0.399108 0.0244379 0.0214803 16711680
0.398444 0.0249405 0.0205811 16711680
0.397695 0.0254204 0.019565 16711680
0.402119 0.00185502 0.0243615 16711680
0.402581 0.00267947 0.0249915 16711680
0.401944 0.00317448 0.0241281 16711680
0.39827 0.00551733 0.0191433 16711680
0.398115 0.0123493 0.0189545 16711680
0.398135 0.0130423 0.0189842 16711680
0.397915 0.0136664 0.018687 16711680
0.397864 0.0143389 0.0186193 16711680
0.397673 0.0149717 0.0183628 16711680
0.397602 0.0156385 0.0182679 16711680
0.397499 0.0162963 0.0181296 16711680
0.39732 0.0169328 0.0178885 16711680
0.398915 0.018069 0.0200596 16711680
0.398791 0.0187199 0.0198931 16711680
0.400573 0.0219571 0.0223249 16711680
0.399453 0.0223308 0.0208043 16711680
0.398965 0.0228805 0.020142 16711680
0.399135 0.0236124 0.0203762 16711680
0.39992 0.0245125 0.0214446 16711680
0.399495 0.0250801 0.0208687 16711680
0.398799 0.0255743 0.0199254 16711680
0.398137 0.0260786 0.0190274 16711680
0.398105 0.0267549 0.0189855 16711680
0.398857 0.0276435 0.0200099 16711680
0.402759 0.00188532 0.0240924 16711680
0.403295 0.00273198 0.0248238 16711680
0.402925 0.00330663 0.0243229 16711680
0.398667 0.00409788 0.0185353 16711680
0.399603 0.00506383 0.0198119 16711680
0.400025 0.00587609 0.0203876 16711680
0.400098 0.00658494 0.0204899 16711680
0.399024 0.0117683 0.0190464 16711680
0.398808 0.0123931 0.0187544 16711680
0.398885 0.0131024 0.0188621 16711680
0.398714 0.0137403 0.0186316 16711680
0.398704 0.0144242 0.0186198 16711680
0.398377 0.0150179 0.0181766 16711680
0.398353 0.015698 0.0181459 16711680
0.398189 0.0163385 0.0179255 16711680
0.398042 0.0169839 0.0177279 16711680
0.400027 0.01823 0.0204309 16711680
0.401534 0.0193388 0.0224847 16711680
0.401354 0.0199723 0.0222414 16711680
0.401523 0.0207037 0.0224745 16711680
0.399917 0.0223095 0.0202944 16711680
0.399464 0.0228692 0.019681 16711680
0.399558 0.02358 0.019811 16711680
0.400348 0.0244819 0.020888 16711680
0.400425 0.0251871 0.0209951 16711680
0.400127 0.0257895 0.0205917 16711680
0.399576 0.0263233 0.0198436 16711680
0.399178 0.0268996 0.0193049 16711680
0.4033 0.00188586 0.0236889 16711680
0.403915 0.00275654 0.0245295 16711680
0.404046 0.00348112 0.0247104 16711680
0.400002 0.00502163 0.0192108 16711680
0.401394 0.00612098 0.021109 16711680
0.401189 0.0067471 0.0208321 16711680
0.401129 0.00741628 0.0207536 16711680
0.3998 0.011836 0.018959 16711680
0.399799 0.0125227 0.0189606 16711680
0.399676 0.0131741 0.0187957 16711680
0.399583 0.013834 0.0186704 16711680
0.39946 0.0144857 0.0185059 16711680
0.399321 0.0151327 0.0183188 16711680
0.399232 0.0157941 0.0182002 16711680
0.398874 0.0163793 0.0177151 16711680
0.399056 0.0171174 0.0179644 16711680
0.400605 0.0182407 0.0200771 16711680
0.402926 0.0195785 0.0232409 16711680
0.40231 0.0200891 0.022404 16711680
0.401904 0.0206592 0.0218529 16711680
0.40279 0.0215904 0.0230628 16711680
0.402004 0.0220549 0.0219942 16711680
0.400698 0.0223764 0.0202178 16711680
0.400096 0.0228944 0.0193999 16711680
0.400079 0.0235747 0.0193796 16711680
0.400791 0.0244553 0.0203516 16711680
0.401223 0.0252579 0.0209419 16711680
0.401038 0.025891 0.0206921 16711680
0.400424 0.0264072 0.0198575 16711680
0.405077 0.00362882 0.0249765 16711680
0.404317 0.00408623 0.0239425 16711680
0.400442 0.00499177 0.0186666 16711680
0.402331 0.0062387 0.0212449 16711680
0.402266 0.00690559 0.0211577 16711680
0.401873 0.00747621 0.0206249 16711680
0.401694 0.00811005 0.0203831 16711680
0.401446 0.0087238 0.0200469 16711680
0.401137 0.0093202 0.0196288 16711680
0.400991 0.00996435 0.0194323 16711680
0.400801 0.0105959 0.0191758 16711680
0.400965 0.01133 0.0194017 16711680
0.40057 0.0119022 0.0188649 16711680
0.400707 0.0126285 0.0190548 16711680
0.400476 0.0132484 0.0187418 16711680
0.4006 0.0139707 0.018914 16711680
0.400254 0.0145581 0.018445 16711680
0.400293 0.0152555 0.0184994 16711680
0.400042 0.0158705 0.01816 16711680
0.399637 0.0164422 0.0176108 16711680
0.399911 0.0172062 0.0179863 16711680
0.401159 0.0182446 0.0196908 16711680
0.403763 0.0196625 0.0232434 16711680
0.40332 0.0202213 0.0226418 16711680
0.402543 0.0206873 0.021585 16711680
0.402634 0.0213965 0.0217113 16711680
0.402633 0.0220799 0.0217121 16711680
0.402105 0.0226168 0.0209939 16711680
0.401081 0.0230175 0.0196009 16711680
0.40066 0.0235858 0.0190289 16711680
0.400996 0.0243631 0.01949 16711680
0.401656 0.0252286 0.0203919 16711680
0.401601 0.0258974 0.0203197 16711680
0.40563 0.00431794 0.0245939 16711680
0.401028 0.00500488 0.0183197 16711680
0.402136 0.0060209 0.0198349 16711680
0.403189 0.00701877 0.0212747 16711680
0.403239 0.00771964 0.0213463 16711680
0.402936 0.00831613 0.0209341 16711680
0.402456 0.00886148 0.0202819 16711680
0.402527 0.0095686 0.0203822 16711680
0.40205 0.0101153 0.0197327 16711680
0.4019 0.0107581 0.0195308 16711680
0.40185 0.0114298 0.0194653 16711680
0.401467 0.0120054 0.0189453 16711680
0.401528 0.0127094 0.019031 16711680
0.401266 0.0133203 0.0186765 16711680
0.401393 0.014043 0.0188518 16711680
0.401104 0.0146465 0.0184603 16711680
0.401192 0.0153578 0.0185826 16711680
0.400874 0.0159532 0.0181504 16711680
0.400793 0.0166166 0.018043 16711680
0.400668 0.0172674 0.0178751 16711680
0.401814 0.018277 0.0194414 16711680
0.404361 0.0196791 0.0229197 16711680
0.404233 0.0203263 0.0227476 16711680
0.403831 0.0208967 0.0222012 16711680
0.403364 0.0214496 0.0215663 16711680
0.40315 0.0220736 0.0212765 16711680
0.403057 0.0227313 0.0211521 16711680
0.402063 0.0231397 0.0197979 16711680
0.40137 0.0236327 0.0188553 16711680
0.401574 0.0243734 0.0191358 16711680
0.401797 0.0251189 0.0194422 16711680
0.40688 0.00453073 0.0251598 16711680
0.406106 0.00498366 0.0241051 16711680
0.402056 0.00583711 0.018581 16711680
0.404104 0.00712964 0.0213811 16711680
0.404309 0.00787577 0.0216641 16711680
0.403857 0.00842839 0.0210497 16711680
0.403718 0.00907326 0.0208625 16711680
0.403499 0.00969473 0.0205654 16711680
0.403025 0.0102423 0.0199211 16711680
0.40291 0.0108947 0.0197662 16711680
0.40253 0.0114703 0.0192498 16711680
0.402463 0.012137 0.0191604 16711680
0.402328 0.0127842 0.0189792 16711680
0.402336 0.0134726 0.0189928 16711680
0.40223 0.0141281 0.0188508 16711680
0.402139 0.014788 0.018729 16711680
0.402082 0.0154577 0.0186542 16711680
0.402077 0.016142 0.0186499 16711680
0.402041 0.0168173 0.0186026 16711680
0.402404 0.0176058 0.0191014 16711680
0.404397 0.0188539 0.021826 16711680
0.404949 0.019693 0.0225831 16711680
0.404908 0.0203646 0.0225298 16711680
0.404822 0.0210236 0.0224154 16711680
0.404363 0.0215781 0.0217897 16711680
0.404324 0.0222506 0.0217397 16711680
0.403922 0.0228218 0.0211923 16711680
0.403217 0.02331 0.0202327 16711680
0.402398 0.0237673 0.0191157 16711680
0.40236 0.0244412 0.0190668 16711680
0.40764 0.00459749 0.0250596 16711680
0.407273 0.0051716 0.02456 16711680
0.403083 0.00598136 0.0188395 16711680
0.404738 0.00715765 0.0211047 16711680
0.405203 0.0079805 0.0217438 16711680
0.404774 0.00853947 0.0211604 16711680
0.404723 0.00920978 0.0210929 16711680
0.404279 0.009765 0.0204878 16711680
0.404036 0.0103797 0.020159 16711680
0.403803 0.0109975 0.0198432 16711680
0.403352 0.0115522 0.0192294 16711680
0.403447 0.0122657 0.0193621 16711680
0.403174 0.0128726 0.0189918 16711680
0.403348 0.0136083 0.0192313 16711680
0.403065 0.0142128 0.0188477 16711680
0.40329 0.0149629 0.0191582 16711680
0.403187 0.0156189 0.0190201 16711680
0.404398 0.0166492 0.020678 16711680
0.405429 0.0176266 0.0220912 16711680
0.405645 0.0183711 0.0223882 16711680
0.405578 0.0190355 0.0223001 16711680
0.405465 0.0196868 0.0221484 16711680
0.405256 0.0203111 0.0218652 16711680
0.405469 0.0210539 0.0221589 16711680
0.405364 0.0217075 0.0220182 16711680
0.405313 0.022376 0.0219508 16711680
0.404826 0.0229234 0.0212874 16711680
0.404626 0.0235509 0.0210159 16711680
0.403871 0.0240254 0.0199871 16711680
0.408193 0.00460216 0.0246762 16711680
0.408439 0.0053595 0.0250152 16711680
0.407888 0.00587863 0.0242633 16711680
0.405101 0.00710568 0.0204587 16711680
0.406156 0.00810257 0.0219045 16711680
0.406073 0.00876299 0.0217938 16711680
0.40554 0.00929126 0.0210671 16711680
0.405031 0.00982744 0.0203739 16711680
0.404917 0.0104793 0.02022 16711680
0.40459 0.0110694 0.0197752 16711680
0.404387 0.011696 0.0195005 16711680
0.404406 0.0123869 0.0195291 16711680
0.404272 0.0130338 0.0193495 16711680
0.404347 0.0137408 0.0194547 16711680
0.405267 0.0146904 0.0207163 16711680
0.406447 0.0157131 0.0223343 16711680
0.40658 0.0164344 0.0225185 16711680
0.406509 0.0170972 0.0224239 16711680
0.406396 0.0177485 0.0222731 16711680
0.406222 0.0183823 0.0220377 16711680
0.406071 0.0190224 0.0218326 16711680
0.405963 0.0196752 0.021688 16711680
0.405617 0.020261 0.021217 16711680
0.405917 0.0210286 0.0216312 16711680
0.406221 0.0217965 0.0220494 16711680
0.40616 0.0224621 0.0219692 16711680
0.406178 0.0231495 0.0219955 16711680
0.406013 0.0237862 0.0217731 16711680
0.408622 0.00456941 0.0241218 16711680
0.409351 0.00547159 0.025124 16711680
0.408909 0.00602308 0.0245217 16711680
0.408186 0.00649139 0.0235338 16711680
0.406477 0.00666788 0.0211946 16711680
0.405525 0.00707138 0.019894 16711680
0.407091 0.00821975 0.0220428 16711680
0.407144 0.00891975 0.0221179 16711680
0.406354 0.00937203 0.0210384 16711680
0.405987 0.0099493 0.0205382 16711680
0.405822 0.0105861 0.0203148 16711680
0.405498 0.0111768 0.0198743 16711680
0.405741 0.0119327 0.0202104 16711680
0.406533 0.0128472 0.0212983 16711680
0.407367 0.0137724 0.0224432 16711680
0.407615 0.0145274 0.022786 16711680
0.407596 0.0152051 0.0227631 16711680
0.407314 0.0158073 0.02238 16711680
0.407255 0.0164734 0.0223013 16711680
0.40706 0.017101 0.0220374 16711680
0.406927 0.0177462 0.021858 16711680
0.406748 0.0183785 0.0216154 16711680
0.406524 0.0189984 0.021312 16711680
0.406438 0.0196572 0.021196 16711680
0.406135 0.0202551 0.0207839 16711680
0.406357 0.021001 0.0210921 16711680
0.406716 0.0217844 0.0215863 16711680
0.406768 0.0224813 0.0216594 16711680
0.406874 0.0231933 0.0218077 16711680
0.406542 0.0237835 0.0213557 16711680
0.409983 0.00549987 0.0248492 16711680
0.40997 0.00617924 0.0248344 16711680
0.409795 0.00681016 0.0245969 16711680
0.408797 0.00719711 0.0232323 16711680
0.407115 0.0073826 0.0209287 16711680
0.407491 0.00817868 0.0214472 16711680
0.407751 0.00894004 0.0218073 16711680
0.407454 0.00953707 0.0214028 16711680
0.407494 0.010233 0.0214599 16711680
0.407421 0.0108962 0.0213637 16711680
0.408501 0.0118953 0.0228474 16711680
0.409021 0.0127299 0.0235635 16711680
0.408925 0.0133846 0.0234338 16711680
0.408634 0.0139832 0.0230381 16711680
0.408269 0.0145609 0.022541 16711680
0.408187 0.0152202 0.0224308 16711680
0.407872 0.0158128 0.022002 16711680
0.407786 0.0164714 0.0218873 16711680
0.407557 0.0170893 0.021577 16711680
0.407401 0.0177279 0.0213652 16711680
0.407228 0.0183619 0.0211309 16711680
0.406996 0.0189795 0.0208162 16711680
0.406906 0.0196373 0.0206951 16711680
0.406646 0.0202473 0.0203416 16711680
0.406785 0.0209698 0.0205359 16711680
0.406858 0.0216734 0.0206389 16711680
0.407104 0.0224251 0.0209793 16711680
0.406642 0.022979 0.0203487 16711680
0.410474 0.00548604 0.0243814 16711680
0.411011 0.00632966 0.0251212 16711680
0.410932 0.00698897 0.0250162 16711680
0.410216 0.0074589 0.0240366 16711680
0.409022 0.00778806 0.0224006 16711680
0.408678 0.00837046 0.0219322 16711680
0.40965 0.00934115 0.0232692 16711680
0.409918 0.0101033 0.0236403 16711680
0.410145 0.0108529 0.0239551 16711680
0.410054 0.0115087 0.0238323 16711680
0.410099 0.0122045 0.0238972 16711680
0.409776 0.012793 0.0234572 16711680
0.409628 0.0134326 0.0232568 16711680
0.409236 0.014002 0.0227228 16711680
0.408797 0.014558 0.0221229 16711680
0.408688 0.0152097 0.0219769 16711680
0.408405 0.0158115 0.0215913 16711680
0.408265 0.0164546 0.0214026 16711680
0.408015 0.0170661 0.0210613 16711680
0.407826 0.0176956 0.0208054 16711680
0.407726 0.0183505 0.0206712 16711680
0.407495 0.0189683 0.0203571 16711680
0.407401 0.0196249 0.0202309 16711680
0.407154 0.0202387 0.0198954 16711680
0.407142 0.0209188 0.0198821 16711680
0.407163 0.0216078 0.0199136 16711680
0.407489 0.0223821 0.020364 16711680
0.410841 0.00543502 0.0237432 16711680
0.411466 0.00630531 0.0246052 16711680
0.411823 0.00709468 0.0250993 16711680
0.411608 0.00771317 0.0248071 16711680
0.410952 0.00820103 0.0239087 16711680
0.410487 0.00874633 0.0232729 16711680
0.410699 0.00949198 0.0235671 16711680
0.410783 0.0101996 0.0236857 16711680
0.410856 0.0109039 0.02379 16711680
0.410777 0.0115631 0.0236837 16711680
0.410702 0.0122238 0.0235842 16711680
0.410366 0.0128085 0.0231261 16711680
0.410266 0.013462 0.0229918 16711680
0.409784 0.0140049 0.0223328 16711680
0.409305 0.0145494 0.0216777 16711680
0.409226 0.0152098 0.0215727 16711680
0.408872 0.015791 0.0210892 16711680
0.408716 0.0164296 0.0208782 16711680
0.408572 0.0170716 0.0206835 16711680
0.408418 0.017711 0.0204749 16711680
0.408292 0.0183583 0.0203044 16711680
0.408047 0.0189722 0.0199718 16711680
0.407971 0.0196338 0.0198692 16711680
0.407705 0.0202422 0.0195081 16711680
0.407658 0.0209122 0.0194455 16711680
0.407603 0.0215802 0.0193741 16711680
0.411296 0.00541028 0.0232253 16711680
0.411649 0.00619954 0.023715 16711680
0.412454 0.0071227 0.0248246 16711680
0.412625 0.00785577 0.0250622 16711680
0.412028 0.00836098 0.0242456 16711680
0.411281 0.00882214 0.0232208 16711680
0.410998 0.00942174 0.0228359 16711680
0.411037 0.0101164 0.0228931 16711680
0.41145 0.0109204 0.0234635 16711680
0.411411 0.0115915 0.0234132 16711680
0.411275 0.0122341 0.023229 16711680
0.410927 0.0128153 0.0227541 16711680
0.410736 0.0134423 0.0224946 16711680
0.410257 0.0139861 0.0218394 16711680
0.409783 0.014532 0.0211908 16711680
0.409573 0.0151545 0.0209048 16711680
0.409281 0.0157539 0.0205071 16711680
0.409131 0.0163942 0.0203043 16711680
0.409054 0.0170555 0.0202016 16711680
0.408869 0.017686 0.0199505 16711680
0.408819 0.0183551 0.0198848 16711680
0.408569 0.0189674 0.019544 16711680
0.408533 0.0196406 0.019498 16711680
0.408294 0.0202562 0.0191718 16711680
0.408321 0.0209472 0.0192125 16711680
0.408164 0.0215863 0.0189993 16711680
0.410553 0.00502616 0.021059 16711680
0.411973 0.00613555 0.0230165 16711680
0.412804 0.00706697 0.0241638 16711680
0.41337 0.00791803 0.0249462 16711680
0.4132 0.00854948 0.0247155 16711680
0.412795 0.00911167 0.0241621 16711680
0.411884 0.00952464 0.022911 16711680
0.41141 0.0100677 0.0222617 16711680
0.411911 0.0108982 0.0229555 16711680
0.41204 0.0116183 0.0231352 16711680
0.411846 0.0122441 0.0228721 16711680
0.411526 0.0128332 0.0224349 16711680
0.411357 0.0134665 0.0222052 16711680
0.41084 0.0139994 0.0214982 16711680
0.41025 0.0145115 0.020689 16711680
0.410105 0.0151528 0.0204923 16711680
0.409809 0.015751 0.0200893 16711680
0.40964 0.0163858 0.0198593 16711680
0.409594 0.017056 0.0197996 16711680
0.409445 0.0176967 0.0195976 16711680
0.409373 0.0183594 0.0195014 16711680
0.409239 0.0190047 0.0193206 16711680
0.409207 0.0196787 0.0192794 16711680
0.408989 0.0203004 0.0189826 16711680
0.409038 0.0209976 0.0190542 16711680
0.409665 0.00459808 0.0186895 16711680
0.412145 0.00602621 0.022109 16711680
0.413174 0.00701725 0.0235306 16711680
0.413831 0.00789562 0.024439 16711680
0.414372 0.00873828 0.0251871 16711680
0.413888 0.00927639 0.024524 16711680
0.413056 0.00971243 0.0233822 16711680
0.412128 0.010121 0.0221065 16711680
0.412375 0.0108767 0.0224508 16711680
0.412511 0.0115991 0.0226408 16711680
0.412349 0.0122342 0.0224217 16711680
0.411937 0.0127963 0.0218567 16711680
0.411879 0.013462 0.0217801 16711680
0.411456 0.0140219 0.0212007 16711680
0.410733 0.0144957 0.0202094 16711680
0.41065 0.0151549 0.0200981 16711680
0.410354 0.0157529 0.0196935 16711680
0.410245 0.0164049 0.0195467 16711680
0.410137 0.0170572 0.0194007 16711680
0.410029 0.0177098 0.0192566 16711680
0.409963 0.0183741 0.0191683 16711680
0.410016 0.0190724 0.0192449 16711680
0.409918 0.0197278 0.0191138 16711680
0.409769 0.0203685 0.0189106 16711680
0.409803 0.0210613 0.0189621 16711680
0.411863 0.00578079 0.020575 16711680
0.413439 0.00693607 0.022752 16711680
0.41423 0.00785449 0.0238452 16711680
0.414873 0.00872794 0.0247358 16711680
0.414856 0.00940451 0.0247163 16711680
0.414787 0.0100656 0.0246246 16711680
0.414032 0.0105241 0.0235865 16711680
0.413039 0.010914 0.0222216 16711680
0.412967 0.0115755 0.0221261 16711680
0.412848 0.0122229 0.0219646 16711680
0.412577 0.0128263 0.0215944 16711680
0.412521 0.0134926 0.021521 16711680
0.412118 0.0140582 0.0209692 16711680
0.412133 0.0147451 0.0209926 16711680
0.411939 0.0153717 0.0207286 16711680
0.411981 0.0160664 0.0207902 16711680
0.411825 0.0167043 0.0205795 16711680
0.411073 0.0171711 0.0195448 16711680
0.410889 0.0178016 0.0192951 16711680
0.410774 0.0184518 0.0191399 16711680
0.410806 0.0191438 0.019187 16711680
0.410647 0.0197818 0.018972 16711680
0.410667 0.0204703 0.0190032 16711680
0.411139 0.0054023 0.018428 16711680
0.413584 0.00681874 0.0218065 16711680
0.414668 0.00782534 0.0233067 16711680
0.415231 0.00867495 0.0240868 16711680
0.415578 0.00945958 0.0245693 16711680
0.41575 0.0101919 0.0248109 16711680
0.415309 0.0107428 0.0242056 16711680
0.414872 0.0112953 0.0236056 16711680
0.413394 0.0115429 0.0215695 16711680
0.413314 0.0122021 0.0214627 16711680
0.413596 0.0129671 0.021856 16711680
0.414165 0.0138149 0.0226443 16711680
0.415016 0.014744 0.0238234 16711680
0.415755 0.015639 0.0248469 16711680
0.415745 0.0163164 0.0248369 16711680
0.415627 0.0169623 0.0246769 16711680
0.415244 0.0175324 0.024152 16711680
0.41469 0.0180539 0.0233915 16711680
0.413497 0.0183932 0.0217471 16711680
0.412372 0.018754 0.0201987 16711680
0.411976 0.0193235 0.0196553 16711680
0.411699 0.0199274 0.0192769 16711680
0.411548 0.00536335 0.017843 16711680
0.413372 0.00659433 0.0203662 16711680
0.414728 0.00768289 0.0222435 16711680
0.415301 0.00853628 0.0230398 16711680
0.41588 0.00939021 0.0238433 16711680
0.41657 0.0102761 0.0248007 16711680
0.416779 0.0110185 0.0250922 16711680
0.416445 0.0116008 0.0246347 16711680
0.415477 0.0119972 0.0233015 16711680
0.415271 0.0126181 0.0230201 16711680
0.416382 0.0136245 0.0245596 16711680
0.416452 0.0143253 0.0246599 16711680
0.416578 0.0150422 0.0248377 16711680
0.41645 0.0156851 0.0246642 16711680
0.416451 0.0163655 0.0246693 16711680
0.416239 0.0169844 0.0243802 16711680
0.416058 0.0176124 0.0241342 16711680
0.415939 0.0182584 0.0239735 16711680
0.415688 0.0188664 0.0236297 16711680
0.415493 0.019491 0.0233639 16711680
0.414263 0.0198211 0.0216678 16711680
0.413661 0.0203314 0.0208403 16711680
0.410781 0.00497121 0.0156312 16711680
0.4135 0.00647196 0.0193962 16711680
0.414583 0.00747931 0.020897 16711680
0.415601 0.00846568 0.0223086 16711680
0.416221 0.00933242 0.0231709 16711680
0.416996 0.0102436 0.024246 16711680
0.417723 0.0111393 0.0252545 16711680
0.41757 0.0117746 0.0250474 16711680
0.417482 0.0124291 0.0249296 16711680
0.417219 0.013032 0.024569 16711680
0.417221 0.0137131 0.0245762 16711680
0.416903 0.0143006 0.0241401 16711680
0.41697 0.0150004 0.0242366 16711680
0.41697 0.0156806 0.0242405 16711680
0.417033 0.016379 0.0243312 16711680
0.416753 0.0169782 0.0239481 16711680
0.416652 0.0176291 0.0238119 16711680
0.416583 0.0182894 0.0237205 16711680
0.416649 0.0189883 0.0238155 16711680
0.416509 0.019628 0.023625 16711680
0.416163 0.0202093 0.02315 16711680
0.414936 0.0205409 0.0214573 16711680
0.414633 0.00733367 0.0198181 16711680
0.415831 0.0083743 0.0214804 16711680
0.416599 0.0092853 0.0225483 16711680
0.417288 0.0101714 0.0235059 16711680
0.418174 0.0111146 0.0247363 16711680
0.418719 0.0119555 0.025494 16711680
0.418577 0.0125936 0.0253015 16711680
0.41829 0.0131891 0.0249077 16711680
0.417955 0.0137711 0.024448 16711680
0.417424 0.0142963 0.0237174 16711680
0.417318 0.0149458 0.0235741 16711680
0.417634 0.015718 0.0240163 16711680
0.417581 0.0163824 0.0239455 16711680
0.417282 0.0169761 0.0235357 16711680
0.417154 0.0176195 0.0233631 16711680
0.417052 0.0182703 0.023226 16711680
0.417215 0.018997 0.0234553 16711680
0.417198 0.0196718 0.0234352 16711680
0.417199 0.0203517 0.0234398 16711680
0.415009 0.00728536 0.0191898 16711680
0.415878 0.00822845 0.0203991 16711680
0.416891 0.00921249 0.0218058 16711680
0.417679 0.0101285 0.0229026 16711680
0.418377 0.011016 0.0238723 16711680
0.419162 0.0119284 0.0249645 16711680
0.419453 0.012694 0.0253719 16711680
0.419441 0.0133699 0.0253586 16711680
0.418862 0.0138801 0.0245615 16711680
0.418243 0.0143791 0.0237076 16711680
0.418059 0.0150056 0.0234566 16711680
0.418243 0.0157392 0.0237148 16711680
0.418137 0.0163886 0.0235726 16711680
0.417708 0.0169446 0.0229821 16711680
0.417539 0.0175761 0.0227523 16711680
0.417547 0.0182585 0.0227669 16711680
0.417689 0.0189793 0.0229679 16711680
0.417724 0.0196691 0.0230201 16711680
0.417706 0.0203436 0.0229986 16711680
0.415451 0.0072569 0.0186533 16711680
0.416194 0.00816229 0.0196874 16711680
0.417107 0.00911728 0.0209585 16711680
0.417627 0.00995374 0.0216831 16711680
0.418349 0.0108494 0.022689 16711680
0.419386 0.0118365 0.0241305 16711680
0.419831 0.0126478 0.0247519 16711680
0.420241 0.0134481 0.0253255 16711680
0.420051 0.0140716 0.0250657 16711680
0.419818 0.0146828 0.0247463 16711680
0.419224 0.0151889 0.023926 16711680
0.419142 0.0158449 0.0238168 16711680
0.418836 0.0164361 0.0233974 16711680
0.418128 0.016911 0.0224184 16711680
0.417878 0.0175193 0.0220765 16711680
0.41802 0.0182404 0.0222772 16711680
0.418088 0.0189402 0.0223762 16711680
0.418204 0.0196533 0.0225408 16711680
0.417978 0.0202684 0.0222304 16711680
0.416579 0.00811681 0.0190721 16711680
0.417268 0.00900546 0.0200338 16711680
0.417748 0.00983042 0.0207034 16711680
0.418403 0.0107066 0.0216171 16711680
0.41928 0.0116473 0.0228391 16711680
0.420127 0.0125773 0.024018 16711680
0.42073 0.0134345 0.0248594 16711680
0.420949 0.014178 0.0251676 16711680
0.420829 0.0148221 0.0250058 16711680
0.420569 0.0154253 0.0246489 16711680
0.420424 0.0160622 0.0244519 16711680
0.419642 0.0165144 0.0233697 16711680
0.418789 0.0169472 0.02219 16711680
0.418635 0.017583 0.0219805 16711680
0.418547 0.018238 0.021863 16711680
0.418567 0.0189239 0.0218949 16711680
0.418607 0.0196153 0.0219544 16711680
0.417158 0.00812942 0.0187263 16711680
0.41715 0.00881028 0.01872 16711680
0.417882 0.00971076 0.0197406 16711680
0.418587 0.0106024 0.0207254 16711680
0.419455 0.0115407 0.0219356 16711680
0.420406 0.0125019 0.0232605 16711680
0.420919 0.0133331 0.0239785 16711680
0.421349 0.0141387 0.0245798 16711680
0.421577 0.0148844 0.0248998 16711680
0.421719 0.0156049 0.0251025 16711680
0.421368 0.0161812 0.0246183 16711680
0.421103 0.0167833 0.024255 16711680
0.420194 0.0171991 0.0229963 16711680
0.419625 0.0177141 0.0222087 16711680
0.419145 0.0182558 0.0215465 16711680
0.419128 0.0189311 0.0215274 16711680
0.419032 0.0195835 0.0213977 16711680
0.41761 0.00878727 0.0182086 16711680
0.418064 0.00960526 0.0188434 16711680
0.418795 0.0105049 0.0198652 16711680
0.419608 0.0114275 0.0210003 16711680
0.420322 0.0123191 0.0219966 16711680
0.420815 0.013145 0.0226876 16711680
0.421492 0.0140238 0.0236332 16711680
0.422041 0.0148639 0.0244008 16711680
0.422459 0.0156648 0.0249861 16711680
0.422419 0.0163318 0.0249357 16711680
0.422375 0.0169973 0.0248783 16711680
0.421961 0.0175557 0.0243065 16711680
0.421061 0.0179743 0.0230597 16711680
0.420314 0.0184383 0.0220251 16711680
0.419923 0.0190054 0.021485 16711680
0.41807 0.00876418 0.0176965 16711680
0.418365 0.00953516 0.0181117 16711680
0.419059 0.0104239 0.0190818 16711680
0.419669 0.0112866 0.0199351 16711680
0.420232 0.0121346 0.0207238 16711680
0.420833 0.0129927 0.0215653 16711680
0.421733 0.0139376 0.0228229 16711680
0.422348 0.0147973 0.0236826 16711680
0.422883 0.0156328 0.0244325 16711680
0.423187 0.0164 0.0248601 16711680
0.423294 0.0171092 0.0250133 16711680
0.423246 0.0177733 0.0249506 16711680
0.423167 0.0184283 0.0248443 16711680
0.422796 0.0189995 0.0243334 16711680
0.421433 0.0192856 0.0224397 16711680
0.418655 0.00946158 0.0173634 16711680
0.419332 0.0103458 0.0183115 16711680
0.41968 0.0111313 0.0188013 16711680
0.420371 0.0120173 0.0197678 16711680
0.421138 0.0129246 0.0208405 16711680
0.421902 0.0138301 0.0219109 16711680
0.422478 0.0146789 0.0227181 16711680
0.423026 0.0155184 0.0234857 16711680
0.42334 0.0162888 0.0239276 16711680
0.423849 0.0171154 0.0246418 16711680
0.424262 0.0179132 0.0252215 16711680
0.424137 0.0185547 0.025052 16711680
0.424046 0.0192059 0.024929 16711680
0.423588 0.0197517 0.0242956 16711680
0.419093 0.0101152 0.0168259 16711680
0.419909 0.01104 0.0179679 16711680
0.420641 0.0119387 0.0189935 16711680
0.421307 0.0128167 0.0199274 16711680
0.422028 0.0137097 0.0209378 16711680
0.422618 0.014563 0.0217649 16711680
0.422931 0.0153342 0.0222055 16711680
0.423647 0.0162226 0.0232097 16711680
0.424277 0.0170845 0.0240923 16711680
0.424696 0.0178842 0.0246811 16711680
0.424806 0.0185937 0.0248392 16711680
0.424933 0.0193079 0.0250216 16711680
0.424268 0.0197939 0.0240988 16711680
0.420162 0.010956 0.0171689 16711680
0.421031 0.0118954 0.0183861 16711680
0.421561 0.0127336 0.0191313 16711680
0.422282 0.013627 0.0201427 16711680
0.422776 0.0144525 0.0208371 16711680
0.423225 0.0152639 0.021468 16711680
0.423911 0.0161435 0.0224301 16711680
0.424551 0.0170088 0.0233281 16711680
0.425067 0.0178369 0.0240529 16711680
0.425215 0.0185577 0.0242648 16711680
0.425436 0.019299 0.0245773 16711680
0.424672 0.0197563 0.0235161 16711680
0.421185 0.0117823 0.0174488 16711680
0.421709 0.012619 0.018186 16711680
0.422241 0.013457 0.0189333 16711680
0.422829 0.0143108 0.0197605 16711680
0.423401 0.0151588 0.0205647 16711680
0.423987 0.0160098 0.0213884 16711680
0.424551 0.0168533 0.0221809 16711680
0.425115 0.0176958 0.0229734 16711680
0.425521 0.0184916 0.0235453 16711680
0.421993 0.0125444 0.0174292 16711680
0.422395 0.0133446 0.0179968 16711680
0.423129 0.0142416 0.0190285 16711680
0.423647 0.015074 0.0197579 16711680
0.424182 0.0159103 0.0205104 16711680
0.424541 0.0166945 0.0210173 16711680
0.425107 0.0175382 0.0218139 16711680
0.425877 0.0184401 0.0228956 16711680
0.425746 0.0190803 0.0227183 16711680
0.423548 0.0142074 0.0184629 16711680
0.424112 0.0150535 0.0192574 16711680
0.424292 0.0157862 0.0195143 16711680
0.424751 0.0165999 0.0201612 16711680
0.425408 0.0174704 0.021086 16711680
0.42603 0.0183298 0.0219624 16711680
0.425715 0.0189169 0.0215263 16711680
0.424493 0.0156884 0.0186434 16711680
0.424913 0.0164911 0.019237 16711680
0.425511 0.0173449 0.02008 16711680
0.4259 0.018137 0.0206306 16711680
0.425678 0.0187515 0.0203243 16711680
0.42501 0.0156829 0.0182149 16711680
0.425268 0.0164386 0.0185829 16711680
0.425651 0.0172298 0.019124 16711680
0.425865 0.0179717 0.0194305 16711680
0.425622 0.0185803 0.0190939 16711680
0.424714 0.0154394 0.0166457 16711680
0.425638 0.0163904 0.0179487 16711680
0.42576 0.0171057 0.0181241 16711680
0.426035 0.0178656 0.0185163 16711680
0.425592 0.0184167 0.0178995 16711680
0.426041 0.0170318 0.0173657 16711680
0.426298 0.0177866 0.0177324 16711680
0.426736 0.0177583 0.0171934 16711680
