# .PCD v0.7 - Point Cloud Data file format
VERSION 0.7
FIELDS x y z rgb
SIZE 4 4 4 4
TYPE F F F F
COUNT 1 1 1 1
WIDTH 1304
HEIGHT 1
VIEWPOINT 0 0 0 1 0 0 0
POINTS 1304
DATA ascii
0.317801 0.161199 0.018183 16711680
0.317481 0.161852 0.0177772 16711680
0.336815 0.115822 0.0412323 16711680
0.335504 0.116292 0.0395893 16711680
0.334546 0.11682 0.0383867 16711680
0.334169 0.117442 0.0379099 16711680
0.333756 0.118059 0.037388 16711680
0.333264 0.118664 0.0367678 16711680
0.333355 0.119361 0.0368757 16711680
0.333091 0.120002 0.0365399 16711680
0.332891 0.120654 0.036285 16711680
0.332722 0.12131 0.036068 16711680
0.332386 0.121941 0.0356423 16711680
0.332395 0.122625 0.0356479 16711680
0.332086 0.123261 0.0352563 16711680
0.331871 0.123911 0.0349829 16711680
0.331785 0.124581 0.0348692 16711680
0.33143 0.125211 0.0344198 16711680
0.331136 0.12585 0.0340471 16711680
0.330508 0.126439 0.0332566 16711680
0.329536 0.126979 0.0320367 16711680
0.328646 0.127531 0.0309197 16711680
0.328043 0.128127 0.0301605 16711680
0.326795 0.12863 0.0285962 16711680
0.326265 0.129239 0.0279282 16711680
0.325512 0.129816 0.026981 16711680
0.324671 0.130381 0.0259246 16711680
0.324472 0.13104 0.0256708 16711680
0.325122 0.13182 0.0264765 16711680
0.325594 0.132573 0.0270607 16711680
0.324789 0.133146 0.0260496 16711680
0.324436 0.133783 0.0256037 16711680
0.324591 0.134492 0.0257913 16711680
0.324163 0.135119 0.0252504 16711680
0.324179 0.135808 0.0252645 16711680
0.324031 0.136474 0.025075 16711680
0.324106 0.137171 0.0251623 16711680
0.324016 0.137846 0.0250438 16711680
0.324294 0.13857 0.025386 16711680
0.324227 0.139247 0.0252962 16711680
0.324364 0.139952 0.0254624 16711680
0.324108 0.140604 0.0251368 16711680
0.323497 0.141209 0.0243678 16711680
0.322798 0.141803 0.023488 16711680
0.323258 0.142551 0.0240577 16711680
0.323853 0.143315 0.0247952 16711680
0.323639 0.143973 0.0245229 16711680
0.323264 0.144611 0.0240477 16711680
0.323371 0.145311 0.0241756 16711680
0.323552 0.146021 0.0243968 16711680
0.323059 0.146644 0.0237746 16711680
0.321984 0.147194 0.0224262 16711680
0.321462 0.147815 0.0217677 16711680
0.321544 0.148513 0.0218652 16711680
0.322433 0.149311 0.0229701 16711680
0.322368 0.149989 0.0228828 16711680
0.321463 0.150564 0.0217463 16711680
0.320943 0.151187 0.0210916 16711680
0.321748 0.151972 0.0220913 16711680
0.321762 0.15266 0.0221033 16711680
0.321196 0.153279 0.021391 16711680
0.320704 0.153907 0.0207705 16711680
0.320567 0.154578 0.0205929 16711680
0.320218 0.155224 0.0201509 16711680
0.320116 0.155899 0.0200182 16711680
0.319953 0.156567 0.0198087 16711680
0.31983 0.15724 0.0196494 16711680
0.319746 0.157918 0.0195396 16711680
0.319374 0.158562 0.0190686 16711680
0.319304 0.159242 0.0189754 16711680
0.318882 0.159881 0.018442 16711680
0.318559 0.160532 0.0180327 16711680
0.31848 0.161211 0.0179281 16711680
0.318164 0.161864 0.0175285 16711680
0.336924 0.11575 0.0402813 16711680
0.335902 0.116267 0.038998 16711680
0.335127 0.116825 0.0380237 16711680
0.334704 0.117439 0.0374883 16711680
0.334276 0.118054 0.0369482 16711680
0.33384 0.118667 0.0363979 16711680
0.333865 0.119354 0.0364228 16711680
0.33357 0.11999 0.0360481 16711680
0.333335 0.120636 0.0357492 16711680
0.333225 0.121302 0.0356064 16711680
0.332861 0.121929 0.0351452 16711680
0.332835 0.122608 0.0351076 16711680
0.332531 0.123244 0.0347217 16711680
0.332315 0.123894 0.0344455 16711680
0.332177 0.124556 0.034268 16711680
0.331728 0.125172 0.0337014 16711680
0.331184 0.125773 0.0330151 16711680
0.330203 0.126311 0.0317827 16711680
0.329058 0.126825 0.030346 16711680
0.32795 0.127346 0.028954 16711680
0.327346 0.127943 0.0281938 16711680
0.326488 0.128503 0.0271147 16711680
0.325627 0.129064 0.0260321 16711680
0.325108 0.129676 0.0253779 16711680
0.3249 0.130333 0.0251119 16711680
0.324954 0.131028 0.025174 16711680
0.32616 0.131888 0.0266764 16711680
0.326069 0.132561 0.0265579 16711680
0.325112 0.133112 0.0253546 16711680
0.324615 0.133729 0.0247279 16711680
0.324953 0.134464 0.0251448 16711680
0.324613 0.135103 0.0247139 16711680
0.32416 0.135727 0.0241424 16711680
0.32393 0.136383 0.0238488 16711680
0.323524 0.137014 0.0233362 16711680
0.323806 0.13774 0.0236824 16711680
0.323634 0.138404 0.0234618 16711680
0.324388 0.139193 0.0243993 16711680
0.324702 0.139922 0.0247866 16711680
0.324808 0.140622 0.024914 16711680
0.324596 0.14128 0.0246423 16711680
0.324072 0.141897 0.023982 16711680
0.32374 0.14254 0.0235615 16711680
0.324579 0.143336 0.0246052 16711680
0.324347 0.143992 0.0243087 16711680
0.323934 0.144625 0.0237874 16711680
0.323949 0.145313 0.0237994 16711680
0.324297 0.146044 0.02423 16711680
0.323674 0.14665 0.0234448 16711680
0.322649 0.147207 0.0221572 16711680
0.322078 0.147822 0.0214376 16711680
0.322108 0.148513 0.0214698 16711680
0.322955 0.149305 0.0225228 16711680
0.32294 0.14999 0.0224985 16711680
0.322279 0.150595 0.0216671 16711680
0.321734 0.151215 0.0209796 16711680
0.32242 0.151985 0.0218318 16711680
0.32236 0.152664 0.0217513 16711680
0.321873 0.153292 0.0211369 16711680
0.321568 0.153942 0.0207493 16711680
0.321259 0.154592 0.020357 16711680
0.320824 0.155228 0.0198073 16711680
0.320761 0.155908 0.0197237 16711680
0.320562 0.156572 0.0194694 16711680
0.320437 0.157244 0.0193073 16711680
0.320358 0.157922 0.0192026 16711680
0.320095 0.158579 0.0188679 16711680
0.320029 0.159259 0.0187794 16711680
0.319547 0.159892 0.018171 16711680
0.319235 0.160544 0.0177755 16711680
0.319217 0.16123 0.0177479 16711680
0.318959 0.161889 0.017419 16711680
0.337255 0.115033 0.0396128 16711680
0.336448 0.115584 0.0385973 16711680
0.336051 0.116202 0.0380955 16711680
0.33527 0.116759 0.0371124 16711680
0.334907 0.117384 0.0366532 16711680
0.33477 0.118044 0.0364761 16711680
0.334356 0.118661 0.0359519 16711680
0.334347 0.119343 0.0359353 16711680
0.334093 0.119985 0.0356122 16711680
0.333808 0.120624 0.0352494 16711680
0.333707 0.121291 0.0351181 16711680
0.333339 0.121917 0.0346518 16711680
0.333187 0.122576 0.0344555 16711680
0.332896 0.123215 0.0340862 16711680
0.33247 0.123833 0.0335478 16711680
0.332498 0.124521 0.033577 16711680
0.331979 0.125126 0.0329219 16711680
0.330838 0.125638 0.0314891 16711680
0.329494 0.126122 0.0298007 16711680
0.328249 0.126622 0.0282376 16711680
0.327461 0.127191 0.0272449 16711680
0.326978 0.127806 0.0266347 16711680
0.326328 0.128398 0.025816 16711680
0.325677 0.12899 0.0249953 16711680
0.325382 0.129635 0.0246212 16711680
0.325365 0.130319 0.0245941 16711680
0.325485 0.131024 0.0247395 16711680
0.326795 0.131898 0.0263729 16711680
0.326597 0.132556 0.0261192 16711680
0.325622 0.133105 0.0248939 16711680
0.325013 0.133706 0.0241256 16711680
0.32545 0.134454 0.0246674 16711680
0.325126 0.135096 0.0242567 16711680
0.324786 0.135736 0.0238252 16711680
0.324443 0.136376 0.0233904 16711680
0.323935 0.136993 0.0227493 16711680
0.323896 0.137676 0.0226945 16711680
0.323859 0.138358 0.0226426 16711680
0.323956 0.139059 0.0227591 16711680
0.324568 0.139828 0.0235189 16711680
0.325327 0.140616 0.0244644 16711680
0.325414 0.141314 0.024567 16711680
0.32482 0.141922 0.0238184 16711680
0.324184 0.142524 0.0230167 16711680
0.325101 0.143331 0.0241591 16711680
0.325053 0.144011 0.024094 16711680
0.324524 0.144628 0.0234258 16711680
0.324402 0.145299 0.0232674 16711680
0.324915 0.146051 0.0239042 16711680
0.324255 0.146652 0.023072 16711680
0.323335 0.147222 0.0219157 16711680
0.322739 0.147834 0.0211643 16711680
0.3227 0.148516 0.0211092 16711680
0.323356 0.149285 0.0219257 16711680
0.323573 0.149998 0.0221907 16711680
0.323113 0.150628 0.0216094 16711680
0.322448 0.151233 0.0207715 16711680
0.322974 0.151984 0.021425 16711680
0.323023 0.152676 0.0214802 16711680
0.322547 0.153305 0.0208795 16711680
0.322304 0.153962 0.0205692 16711680
0.321855 0.154596 0.0200025 16711680
0.321458 0.155236 0.0194998 16711680
0.321407 0.155917 0.0194303 16711680
0.321169 0.156576 0.0191265 16711680
0.321063 0.157251 0.0189887 16711680
0.320963 0.157927 0.0188575 16711680
0.32069 0.158582 0.01851 16711680
0.320662 0.159266 0.0184696 16711680
0.32028 0.15991 0.0179867 16711680
0.319959 0.160562 0.0175786 16711680
0.319832 0.161235 0.0174146 16711680
0.319935 0.161934 0.0175377 16711680
0.337064 0.114913 0.0382843 16711680
0.335707 0.115376 0.0365802 16711680
0.334954 0.115937 0.0356314 16711680
0.334903 0.116612 0.0355622 16711680
0.334702 0.117263 0.035304 16711680
0.334666 0.11794 0.0352535 16711680
0.334651 0.11862 0.0352296 16711680
0.33459 0.119294 0.0351483 16711680
0.334432 0.119952 0.0349444 16711680
0.334126 0.120587 0.0345565 16711680
0.33401 0.121252 0.034405 16711680
0.333637 0.121877 0.0339323 16711680
0.333168 0.122488 0.033339 16711680
0.332958 0.123139 0.0330713 16711680
0.332327 0.123727 0.0322758 16711680
0.331607 0.124301 0.0313679 16711680
0.331356 0.124948 0.0310475 16711680
0.32987 0.125409 0.029181 16711680
0.328886 0.125947 0.0279428 16711680
0.327977 0.126498 0.0267991 16711680
0.327433 0.127104 0.026111 16711680
0.326672 0.127679 0.025153 16711680
0.326305 0.128312 0.0246878 16711680
0.32608 0.128967 0.0244007 16711680
0.325836 0.129619 0.0240897 16711680
0.325842 0.130307 0.024091 16711680
0.325912 0.131005 0.024173 16711680
0.327338 0.131896 0.025954 16711680
0.327205 0.132563 0.0257823 16711680
0.326333 0.133126 0.024684 16711680
0.325702 0.133724 0.0238882 16711680
0.325991 0.134451 0.0242451 16711680
0.325759 0.135106 0.0239489 16711680
0.325545 0.135763 0.0236753 16711680
0.325153 0.136396 0.0231792 16711680
0.324548 0.137 0.0224158 16711680
0.324425 0.137671 0.0222563 16711680
0.324317 0.138344 0.0221158 16711680
0.324204 0.139016 0.0219681 16711680
0.324395 0.139729 0.0222023 16711680
0.325761 0.140599 0.0239075 16711680
0.326264 0.141352 0.0245326 16711680
0.325643 0.141956 0.0237496 16711680
0.324858 0.142539 0.0227599 16711680
0.325755 0.143343 0.0238791 16711680
0.325744 0.144027 0.0238597 16711680
0.325206 0.144643 0.02318 16711680
0.325003 0.145303 0.02292 16711680
0.325669 0.146075 0.0237492 16711680
0.324911 0.146664 0.022794 16711680
0.324069 0.147243 0.0217332 16711680
0.323599 0.147871 0.0211397 16711680
0.323348 0.148526 0.0208195 16711680
0.324006 0.149295 0.0216386 16711680
0.324299 0.150018 0.0220001 16711680
0.323906 0.150656 0.0215026 16711680
0.323141 0.151248 0.0205377 16711680
0.323744 0.152008 0.0212879 16711680
0.323718 0.152691 0.0212507 16711680
0.323218 0.153317 0.0206182 16711680
0.322881 0.153964 0.0201902 16711680
0.32243 0.154597 0.0196207 16711680
0.322055 0.155239 0.0191453 16711680
0.322013 0.155921 0.0190872 16711680
0.321793 0.156583 0.0188062 16711680
0.321697 0.157259 0.0186803 16711680
0.321573 0.157931 0.0185196 16711680
0.321457 0.158605 0.0183682 16711680
0.32137 0.159282 0.0182533 16711680
0.320936 0.15992 0.0177044 16711680
0.320787 0.160591 0.0175127 16711680
0.320471 0.161243 0.0171117 16711680
0.320423 0.161925 0.0170449 16711680
0.336814 0.113418 0.0368915 16711680
0.335709 0.11392 0.0355006 16711680
0.336049 0.114659 0.0359218 16711680
0.335403 0.115237 0.0351068 16711680
0.334373 0.115754 0.0338103 16711680
0.333769 0.116342 0.0330478 16711680
0.333358 0.11696 0.032526 16711680
0.333304 0.117636 0.0324537 16711680
0.333233 0.118309 0.0323588 16711680
0.333368 0.119014 0.0325228 16711680
0.333122 0.11966 0.03221 16711680
0.333226 0.12036 0.0323344 16711680
0.333014 0.121011 0.0320636 16711680
0.332948 0.121685 0.0319749 16711680
0.332583 0.122313 0.0315125 16711680
0.331932 0.122897 0.0306903 16711680
0.330574 0.123375 0.028982 16711680
0.32985 0.123951 0.0280694 16711680
0.329831 0.124634 0.0280404 16711680
0.329091 0.125208 0.0271069 16711680
0.328226 0.125765 0.0260171 16711680
0.327927 0.126407 0.025636 16711680
0.327684 0.127058 0.0253261 16711680
0.327001 0.127645 0.0244642 16711680
0.326692 0.128287 0.0240721 16711680
0.326595 0.12896 0.0239446 16711680
0.32636 0.129613 0.0236443 16711680
0.326339 0.130298 0.0236132 16711680
0.326341 0.130986 0.0236104 16711680
0.327637 0.131858 0.0252299 16711680
0.327868 0.132578 0.0255138 16711680
0.327176 0.133166 0.0246409 16711680
0.326477 0.133754 0.0237597 16711680
0.326543 0.13445 0.0238371 16711680
0.326379 0.135114 0.023625 16711680
0.326187 0.135774 0.023379 16711680
0.325798 0.136407 0.0228857 16711680
0.325275 0.137023 0.0222249 16711680
0.325239 0.137705 0.0221745 16711680
0.324924 0.13835 0.0217746 16711680
0.324721 0.13901 0.0215137 16711680
0.324786 0.139706 0.0215908 16711680
0.326195 0.140582 0.0233516 16711680
0.327011 0.141377 0.0243701 16711680
0.326272 0.141965 0.0234373 16711680
0.325419 0.142538 0.0223624 16711680
0.326319 0.143343 0.0234864 16711680
0.32645 0.144046 0.0236453 16711680
0.325807 0.144648 0.0228333 16711680
0.325613 0.145309 0.0225844 16711680
0.32636 0.146091 0.0235158 16711680
0.325614 0.146682 0.0225753 16711680
0.324874 0.147274 0.0216414 16711680
0.324416 0.147903 0.0210613 16711680
0.324048 0.148543 0.020595 16711680
0.324518 0.149288 0.0211788 16711680
0.325096 0.150046 0.021899 16711680
0.324699 0.150684 0.0213951 16711680
0.323875 0.151269 0.0203559 16711680
0.324148 0.151989 0.0206935 16711680
0.324417 0.152707 0.0210252 16711680
0.323754 0.153314 0.020189 16711680
0.323564 0.153978 0.019945 16711680
0.323112 0.15461 0.0193722 16711680
0.322696 0.155248 0.0188451 16711680
0.322703 0.155936 0.0188495 16711680
0.322437 0.156592 0.0185103 16711680
0.322318 0.157265 0.018355 16711680
0.3222 0.157938 0.0182024 16711680
0.322073 0.15861 0.0180374 16711680
0.32198 0.159287 0.0179157 16711680
0.321627 0.159934 0.0174677 16711680
0.321455 0.160602 0.0172458 16711680
0.321145 0.161254 0.0168521 16711680
0.321207 0.161948 0.0169239 16711680
0.336418 0.113263 0.0353025 16711680
0.33599 0.113876 0.034761 16711680
0.33528 0.114444 0.0338647 16711680
0.334333 0.114974 0.03267 16711680
0.333912 0.115591 0.0321363 16711680
0.333051 0.116137 0.0310514 16711680
0.332354 0.116711 0.0301714 16711680
0.331993 0.117339 0.0297124 16711680
0.331856 0.118003 0.0295351 16711680
0.331914 0.118698 0.0296032 16711680
0.331773 0.119361 0.0294209 16711680
0.331679 0.120032 0.0292978 16711680
0.331477 0.120686 0.0290382 16711680
0.331056 0.121307 0.0285057 16711680
0.330929 0.121973 0.0283409 16711680
0.330483 0.12259 0.0277759 16711680
0.330149 0.123225 0.0273515 16711680
0.329167 0.123762 0.0261134 16711680
0.328666 0.124374 0.0254788 16711680
0.328861 0.12509 0.025719 16711680
0.328588 0.125736 0.0253701 16711680
0.328169 0.12636 0.0248399 16711680
0.328119 0.12704 0.0247715 16711680
0.327533 0.127641 0.0240313 16711680
0.327293 0.128293 0.0237246 16711680
0.327151 0.128959 0.023541 16711680
0.326921 0.129614 0.023247 16711680
0.326907 0.130299 0.0232235 16711680
0.326889 0.130984 0.0231956 16711680
0.327611 0.131775 0.0240974 16711680
0.328421 0.132577 0.0251079 16711680
0.328212 0.133233 0.02484 16711680
0.327623 0.133836 0.0240955 16711680
0.327286 0.134476 0.0236678 16711680
0.327014 0.135124 0.0233213 16711680
0.326978 0.135806 0.0232712 16711680
0.326554 0.136434 0.0227337 16711680
0.325979 0.137042 0.0220063 16711680
0.325971 0.137728 0.0219904 16711680
0.325557 0.138359 0.0214654 16711680
0.325417 0.139028 0.0212848 16711680
0.325428 0.139717 0.0212935 16711680
0.326879 0.140598 0.0231093 16711680
0.327691 0.141392 0.0241227 16711680
0.326828 0.141964 0.0230347 16711680
0.32584 0.14252 0.0217896 16711680
0.326919 0.143348 0.023139 16711680
0.327179 0.144067 0.0234592 16711680
0.326566 0.144673 0.0226845 16711680
0.326255 0.145319 0.0222883 16711680
0.326952 0.146095 0.0231583 16711680
0.326251 0.146691 0.0222731 16711680
0.325523 0.147285 0.0213547 16711680
0.325142 0.147923 0.0208703 16711680
0.324718 0.148556 0.0203335 16711680
0.325176 0.1493 0.020903 16711680
0.325911 0.150077 0.0218202 16711680
0.325456 0.150707 0.0212437 16711680
0.324546 0.151282 0.0200957 16711680
0.325168 0.152044 0.0208712 16711680
0.325071 0.152718 0.0207443 16711680
0.324363 0.153319 0.0198501 16711680
0.32425 0.153992 0.0197036 16711680
0.323768 0.154621 0.0190933 16711680
0.323432 0.155268 0.0186657 16711680
0.32343 0.155954 0.0186582 16711680
0.323142 0.156607 0.0182914 16711680
0.32316 0.157296 0.0183091 16711680
0.322882 0.157951 0.0179538 16711680
0.322775 0.158626 0.017815 16711680
0.322635 0.159297 0.017633 16711680
0.322288 0.159944 0.0171931 16711680
0.322254 0.160627 0.0171443 16711680
0.321898 0.161275 0.0166923 16711680
0.322412 0.162019 0.0173328 16711680
0.33768 0.113379 0.0357943 16711680
0.336725 0.113905 0.0345892 16711680
0.335494 0.114388 0.0330377 16711680
0.334458 0.114905 0.0317315 16711680
0.33365 0.115459 0.0307118 16711680
0.332492 0.115959 0.0292521 16711680
0.331627 0.116506 0.0281596 16711680
0.33134 0.117147 0.0277939 16711680
0.331144 0.117803 0.0275425 16711680
0.330874 0.118446 0.0271981 16711680
0.330949 0.119145 0.0272881 16711680
0.330551 0.119769 0.0267828 16711680
0.330623 0.120467 0.0268674 16711680
0.330349 0.121111 0.0265185 16711680
0.330273 0.121786 0.0264177 16711680
0.330008 0.122432 0.0260794 16711680
0.329925 0.123106 0.0259701 16711680
0.329593 0.123742 0.0255473 16711680
0.329131 0.124359 0.0249622 16711680
0.329284 0.125069 0.025149 16711680
0.329165 0.125738 0.0249944 16711680
0.328726 0.12636 0.0244372 16711680
0.328701 0.127043 0.0244011 16711680
0.328145 0.127648 0.0236977 16711680
0.327859 0.128293 0.0233322 16711680
0.327693 0.128957 0.0231196 16711680
0.327487 0.129614 0.0228546 16711680
0.327542 0.13031 0.0229191 16711680
0.327412 0.130978 0.0227499 16711680
0.327699 0.131707 0.0231061 16711680
0.328767 0.132546 0.0244418 16711680
0.328913 0.133253 0.0246208 16711680
0.32882 0.133926 0.0244977 16711680
0.328322 0.134542 0.023867 16711680
0.32835 0.135232 0.0238971 16711680
0.327962 0.135865 0.0234052 16711680
0.327346 0.136466 0.0226254 16711680
0.327193 0.137132 0.0224277 16711680
0.32683 0.137769 0.0219666 16711680
0.326305 0.138384 0.0213023 16711680
0.326346 0.139077 0.0213482 16711680
0.326753 0.139819 0.0218549 16711680
0.328311 0.140715 0.0238063 16711680
0.328233 0.14139 0.0237032 16711680
0.327289 0.14195 0.0225116 16711680
0.326417 0.142521 0.0214115 16711680
0.327538 0.143355 0.0228149 16711680
0.327717 0.144064 0.0230339 16711680
0.327136 0.144674 0.0222988 16711680
0.326913 0.145332 0.0220138 16711680
0.327588 0.146104 0.0228564 16711680
0.326956 0.146709 0.0220572 16711680
0.326234 0.147303 0.0211451 16711680
0.325797 0.147934 0.0205907 16711680
0.325372 0.148567 0.0200522 16711680
0.325939 0.149325 0.0207584 16711680
0.326928 0.150133 0.0219955 16711680
0.32608 0.150714 0.0209258 16711680
0.325077 0.151277 0.0196605 16711680
0.325844 0.152057 0.020618 16711680
0.32566 0.152721 0.0203817 16711680
0.325032 0.153331 0.0195882 16711680
0.324938 0.154006 0.0194643 16711680
0.324445 0.154634 0.0188401 16711680
0.324135 0.155284 0.0184453 16711680
0.324101 0.155967 0.0183972 16711680
0.323874 0.156627 0.0181062 16711680
0.323945 0.157322 0.0181903 16711680
0.323654 0.157975 0.0178199 16711680
0.323643 0.15866 0.0178007 16711680
0.323381 0.159317 0.0174667 16711680
0.323079 0.159969 0.0170823 16711680
0.322968 0.160644 0.0169373 16711680
0.322663 0.161297 0.0165491 16711680
0.323512 0.162078 0.0176105 16711680
0.338603 0.112757 0.035867 16711680
0.337023 0.11318 0.0338753 16711680
0.335487 0.113613 0.0319393 16711680
0.334484 0.114134 0.0306726 16711680
0.334281 0.114786 0.0304121 16711680
0.33364 0.115368 0.029601 16711680
0.332639 0.115893 0.0283375 16711680
0.331792 0.116444 0.0272682 16711680
0.331034 0.11701 0.0263093 16711680
0.330943 0.117682 0.0261894 16711680
0.330541 0.118306 0.0256797 16711680
0.330645 0.11901 0.0258052 16711680
0.33045 0.119666 0.0255545 16711680
0.330188 0.120313 0.0252202 16711680
0.330217 0.121004 0.025252 16711680
0.330111 0.121675 0.0251133 16711680
0.330246 0.122383 0.025278 16711680
0.33019 0.123061 0.0252022 16711680
0.330161 0.123744 0.0251608 16711680
0.329652 0.124353 0.0245149 16711680
0.329576 0.125029 0.0244151 16711680
0.329647 0.125727 0.0244981 16711680
0.32941 0.126378 0.0241952 16711680
0.329276 0.127045 0.0240223 16711680
0.32874 0.127653 0.0233428 16711680
0.328509 0.128307 0.0230476 16711680
0.32834 0.128969 0.0228298 16711680
0.328123 0.129625 0.0225509 16711680
0.328175 0.13032 0.0226113 16711680
0.328002 0.130982 0.0223891 16711680
0.328163 0.131693 0.0225861 16711680
0.328586 0.13244 0.0231129 16711680
0.329293 0.133227 0.0239968 16711680
0.329486 0.133941 0.024235 16711680
0.329224 0.13459 0.0239003 16711680
0.329388 0.135299 0.0241013 16711680
0.329085 0.135943 0.0237151 16711680
0.329187 0.136643 0.0238374 16711680
0.32885 0.137282 0.0234088 16711680
0.328195 0.137879 0.0225807 16711680
0.328435 0.138598 0.0228773 16711680
0.32823 0.139256 0.0226138 16711680
0.328978 0.140043 0.0235497 16711680
0.329078 0.140742 0.0236702 16711680
0.328623 0.141367 0.0230929 16711680
0.327733 0.141934 0.0219676 16711680
0.327285 0.142562 0.0214003 16711680
0.327928 0.143332 0.0222031 16711680
0.328321 0.14407 0.0226924 16711680
0.327759 0.144682 0.0219805 16711680
0.327586 0.145346 0.0217583 16711680
0.328132 0.146101 0.0224385 16711680
0.327455 0.146701 0.0215831 16711680
0.327015 0.147331 0.0210245 16711680
0.326452 0.147946 0.0203111 16711680
0.326058 0.148583 0.0198109 16711680
0.326753 0.149356 0.0206789 16711680
0.327642 0.150152 0.0217917 16711680
0.326709 0.150722 0.0206138 16711680
0.325649 0.151278 0.0192753 16711680
0.326388 0.152055 0.0201994 16711680
0.326332 0.152734 0.0201243 16711680
0.326077 0.153389 0.0197983 16711680
0.325668 0.154026 0.0192784 16711680
0.325128 0.154648 0.0185949 16711680
0.324949 0.155313 0.0183642 16711680
0.324837 0.155986 0.0182186 16711680
0.324615 0.156647 0.0179346 16711680
0.324651 0.157338 0.0179746 16711680
0.324394 0.157994 0.0176452 16711680
0.324368 0.158678 0.0176072 16711680
0.324064 0.15933 0.01722 16711680
0.323809 0.159988 0.0168943 16711680
0.323655 0.160657 0.0166963 16711680
0.323556 0.161333 0.0165663 16711680
0.324107 0.162081 0.0172533 16711680
0.338143 0.11259 0.0341945 16711680
0.336809 0.113054 0.03251 16711680
0.335468 0.113519 0.0308173 16711680
0.334746 0.114087 0.0299042 16711680
0.334375 0.114712 0.0294322 16711680
0.333603 0.115273 0.028456 16711680
0.332666 0.115808 0.0272713 16711680
0.33193 0.116377 0.0263406 16711680
0.331271 0.116959 0.0255061 16711680
0.331032 0.117608 0.0251994 16711680
0.330827 0.118263 0.0249376 16711680
0.33054 0.118906 0.0245706 16711680
0.330525 0.119591 0.0245469 16711680
0.330334 0.120249 0.024302 16711680
0.33024 0.120921 0.0241784 16711680
0.330169 0.121598 0.0240831 16711680
0.330238 0.122296 0.0241656 16711680
0.330326 0.122997 0.024271 16711680
0.330733 0.123746 0.0247781 16711680
0.33026 0.124361 0.0241773 16711680
0.330016 0.125011 0.0238661 16711680
0.330141 0.125717 0.0240173 16711680
0.330095 0.126397 0.0239549 16711680
0.329863 0.127049 0.0236584 16711680
0.32946 0.127677 0.0231453 16711680
0.32932 0.128343 0.022964 16711680
0.32902 0.128987 0.0225815 16711680
0.328835 0.129647 0.0223435 16711680
0.328861 0.130338 0.0223712 16711680
0.328653 0.130995 0.0221041 16711680
0.328724 0.131693 0.0221893 16711680
0.328665 0.132372 0.0221095 16711680
0.32917 0.13313 0.0227402 16711680
0.329821 0.133909 0.0235537 16711680
0.329701 0.134578 0.023398 16711680
0.33006 0.135315 0.0238453 16711680
0.329955 0.135986 0.0237077 16711680
0.330088 0.13669 0.0238703 16711680
0.329947 0.137356 0.0236878 16711680
0.329985 0.138047 0.0237308 16711680
0.329809 0.138708 0.0235034 16711680
0.329811 0.139394 0.0235008 16711680
0.329632 0.140055 0.0232707 16711680
0.329285 0.140694 0.0228292 16711680
0.328749 0.141309 0.0221496 16711680
0.328149 0.141915 0.0213895 16711680
0.327913 0.14257 0.0210865 16711680
0.32848 0.143331 0.0217953 16711680
0.328935 0.144076 0.0223629 16711680
0.328375 0.144689 0.0216526 16711680
0.328123 0.145342 0.0213311 16711680
0.328695 0.146101 0.0220456 16711680
0.328011 0.1467 0.0211796 16711680
0.327784 0.147356 0.0208886 16711680
0.327193 0.147968 0.0201405 16711680
0.326681 0.14859 0.01949 16711680
0.327432 0.14937 0.0204303 16711680
0.328287 0.150162 0.0215014 16711680
0.327269 0.150722 0.0202157 16711680
0.326228 0.15128 0.0189002 16711680
0.327045 0.152066 0.0199238 16711680
0.326896 0.152734 0.0197312 16711680
0.326716 0.153398 0.0194994 16711680
0.326264 0.154029 0.0189253 16711680
0.325826 0.154663 0.0183687 16711680
0.325776 0.155344 0.0183005 16711680
0.325506 0.155998 0.0179552 16711680
0.325329 0.156664 0.0177281 16711680
0.325315 0.157349 0.0177045 16711680
0.32514 0.158015 0.0174791 16711680
0.325103 0.158697 0.0174274 16711680
0.324763 0.159345 0.0169951 16711680
0.324503 0.160002 0.016662 16711680
0.324374 0.160674 0.0164955 16711680
0.324928 0.161423 0.0171869 16711680
0.326587 0.162294 0.019271 16711680
0.338636 0.11258 0.0337198 16711680
0.337048 0.113002 0.031714 16711680
0.335274 0.113397 0.0294753 16711680
0.334815 0.114007 0.0288923 16711680
0.334392 0.114624 0.0283538 16711680
0.333788 0.115213 0.0275892 16711680
0.332851 0.115748 0.0264037 16711680
0.332375 0.116359 0.0257986 16711680
0.331705 0.116939 0.0249498 16711680
0.331406 0.117579 0.0245683 16711680
0.331281 0.118247 0.0244057 16711680
0.33104 0.118896 0.0240977 16711680
0.331011 0.119579 0.0240558 16711680
0.330846 0.120241 0.0238423 16711680
0.330758 0.120915 0.0237269 16711680
0.330656 0.121587 0.0235929 16711680
0.330536 0.122256 0.0234368 16711680
0.330606 0.122954 0.02352 16711680
0.331117 0.123719 0.0241596 16711680
0.330916 0.124375 0.0239009 16711680
0.330752 0.125038 0.0236894 16711680
0.33056 0.125696 0.023443 16711680
0.330611 0.12639 0.023502 16711680
0.330522 0.127064 0.0233841 16711680
0.33016 0.127697 0.0229237 16711680
0.330102 0.128376 0.0228453 16711680
0.329701 0.129004 0.0223356 16711680
0.329629 0.129681 0.02224 16711680
0.329528 0.130353 0.0221071 16711680
0.329385 0.13102 0.0219227 16711680
0.329389 0.131708 0.0219225 16711680
0.329249 0.132375 0.0217416 16711680
0.329394 0.133082 0.0219185 16711680
0.329365 0.133765 0.0218768 16711680
0.329778 0.13451 0.0223927 16711680
0.330142 0.135248 0.0228465 16711680
0.330259 0.13595 0.0229884 16711680
0.330634 0.136688 0.0234562 16711680
0.330529 0.137359 0.0233184 16711680
0.330571 0.13805 0.0233665 16711680
0.330401 0.138712 0.023147 16711680
0.330335 0.139389 0.0230588 16711680
0.330085 0.140041 0.0227391 16711680
0.329389 0.140633 0.021857 16711680
0.329012 0.141269 0.0213771 16711680
0.328863 0.141935 0.021185 16711680
0.328807 0.142614 0.0211098 16711680
0.329295 0.143364 0.0217195 16711680
0.329419 0.144066 0.02187 16711680
0.3287 0.144658 0.0209591 16711680
0.328599 0.145331 0.0208273 16711680
0.329281 0.146104 0.0216818 16711680
0.328702 0.146716 0.0209473 16711680
0.328363 0.147358 0.0205146 16711680
0.327942 0.147991 0.0199794 16711680
0.327335 0.148601 0.0192094 16711680
0.32812 0.149385 0.0201937 16711680
0.328878 0.150165 0.0211433 16711680
0.327855 0.150724 0.0198505 16711680
0.326818 0.151283 0.0185384 16711680
0.327654 0.152071 0.0195866 16711680
0.327509 0.152739 0.0193986 16711680
0.327269 0.153396 0.019091 16711680
0.326855 0.154032 0.0185649 16711680
0.326446 0.15467 0.0180451 16711680
0.326407 0.155351 0.0179901 16711680
0.326172 0.15601 0.0176901 16711680
0.326048 0.156682 0.0175276 16711680
0.325993 0.157362 0.0174536 16711680
0.325861 0.158033 0.0172822 16711680
0.325757 0.158707 0.0171459 16711680
0.325446 0.159358 0.0167496 16711680
0.325273 0.160025 0.0165266 16711680
0.325183 0.160701 0.0164078 16711680
0.326308 0.161514 0.0178202 16711680
0.327653 0.162349 0.01951 16711680
0.335897 0.112722 0.0291656 16711680
0.335361 0.11332 0.0284855 16711680
0.33539 0.11401 0.028517 16711680
0.334862 0.11461 0.0278461 16711680
0.333937 0.115147 0.0266749 16711680
0.33319 0.115713 0.0257277 16711680
0.332801 0.116338 0.0252329 16711680
0.332175 0.116925 0.0244393 16711680
0.331888 0.117567 0.0240718 16711680
0.331792 0.118239 0.0239463 16711680
0.331612 0.118899 0.0237142 16711680
0.331567 0.119579 0.0236523 16711680
0.331388 0.120239 0.0234222 16711680
0.331314 0.120915 0.0233238 16711680
0.331175 0.121581 0.0231442 16711680
0.331046 0.122248 0.0229763 16711680
0.331008 0.12293 0.0229234 16711680
0.331312 0.123664 0.0233017 16711680
0.331603 0.124395 0.0236633 16711680
0.33159 0.12508 0.0236425 16711680
0.331163 0.125702 0.0230988 16711680
0.330969 0.12636 0.0228496 16711680
0.331161 0.127076 0.0230871 16711680
0.33086 0.127718 0.0227026 16711680
0.330743 0.128388 0.0225499 16711680
0.330422 0.129028 0.0221406 16711680
0.330357 0.129705 0.0220538 16711680
0.330137 0.130361 0.0217711 16711680
0.329965 0.131023 0.0215489 16711680
0.330013 0.131717 0.021605 16711680
0.329879 0.132385 0.021431 16711680
0.329812 0.133062 0.0213411 16711680
0.329706 0.133734 0.0212029 16711680
0.329835 0.134439 0.0213608 16711680
0.329762 0.135116 0.0212635 16711680
0.3301 0.13585 0.0216846 16711680
0.330598 0.136605 0.0223082 16711680
0.330708 0.137306 0.0224413 16711680
0.330848 0.138011 0.0226133 16711680
0.330699 0.138677 0.0224203 16711680
0.330794 0.139375 0.0225352 16711680
0.330436 0.140012 0.0220785 16711680
0.329642 0.140591 0.0210726 16711680
0.329532 0.141263 0.0209295 16711680
0.32957 0.141954 0.0209721 16711680
0.329821 0.142673 0.0212829 16711680
0.330083 0.143394 0.0216094 16711680
0.329595 0.144015 0.0209889 16711680
0.328517 0.144561 0.0196251 16711680
0.328094 0.145193 0.0190864 16711680
0.329801 0.146099 0.0212344 16711680
0.329096 0.146694 0.0203406 16711680
0.328954 0.147362 0.0201555 16711680
0.328617 0.148005 0.0197268 16711680
0.328223 0.148641 0.0192238 16711680
0.32915 0.149444 0.0203878 16711680
0.32947 0.150169 0.0207871 16711680
0.328388 0.15072 0.0194181 16711680
0.327413 0.151286 0.0181829 16711680
0.328191 0.152068 0.0191596 16711680
0.328031 0.152734 0.018953 16711680
0.327895 0.153403 0.0187757 16711680
0.327465 0.154038 0.0182294 16711680
0.32709 0.154679 0.0177506 16711680
0.327061 0.155362 0.0177095 16711680
0.326835 0.156021 0.0174193 16711680
0.326784 0.156702 0.0173503 16711680
0.326636 0.157371 0.017159 16711680
0.326517 0.158043 0.0170044 16711680
0.326397 0.158715 0.0168476 16711680
0.326037 0.15936 0.0163888 16711680
0.325907 0.160032 0.0162202 16711680
0.325956 0.160724 0.0162765 16711680
0.327602 0.161595 0.0183477 16711680
0.328382 0.162367 0.019326 16711680
0.337041 0.112134 0.0295136 16711680
0.335959 0.112641 0.0281434 16711680
0.335618 0.113271 0.0277078 16711680
0.335755 0.113979 0.0278766 16711680
0.335318 0.114594 0.02732 16711680
0.334225 0.115104 0.0259364 16711680
0.333666 0.1157 0.0252255 16711680
0.333283 0.116326 0.0247381 16711680
0.332748 0.116928 0.0240583 16711680
0.332458 0.117569 0.0236876 16711680
0.332362 0.118241 0.0235614 16711680
0.332168 0.118898 0.0233116 16711680
0.332094 0.119574 0.0232131 16711680
0.331928 0.120236 0.0229993 16711680
0.331852 0.120911 0.0228976 16711680
0.331745 0.121582 0.0227578 16711680
0.331587 0.122245 0.0225533 16711680
0.331508 0.122921 0.0224499 16711680
0.331452 0.1236 0.0223734 16711680
0.33187 0.12435 0.0228959 16711680
0.332345 0.125109 0.0234911 16711680
0.331915 0.125731 0.0229439 16711680
0.33163 0.126375 0.0225786 16711680
0.331809 0.127089 0.0228003 16711680
0.331771 0.12777 0.0227472 16711680
0.331595 0.128431 0.022521 16711680
0.331196 0.129059 0.0220116 16711680
0.331189 0.129745 0.021998 16711680
0.330838 0.130381 0.0215504 16711680
0.330724 0.131051 0.0214015 16711680
0.330611 0.131722 0.0212544 16711680
0.330452 0.132386 0.0210491 16711680
0.33041 0.133067 0.0209913 16711680
0.330278 0.133736 0.02082 16711680
0.3303 0.134426 0.0208418 16711680
0.3302 0.135098 0.0207108 16711680
0.330279 0.135796 0.0208056 16711680
0.330235 0.136477 0.0207462 16711680
0.330531 0.137204 0.0211142 16711680
0.330322 0.137862 0.0208457 16711680
0.3307 0.1386 0.0213186 16711680
0.330722 0.139289 0.0213406 16711680
0.330982 0.14001 0.0216644 16711680
0.330198 0.140591 0.0206703 16711680
0.330082 0.141261 0.0205181 16711680
0.330117 0.141952 0.0205574 16711680
0.330775 0.142725 0.0213833 16711680
0.330514 0.143376 0.0210495 16711680
0.329664 0.143951 0.0199717 16711680
0.328055 0.144428 0.0179363 16711680
0.327774 0.145078 0.0175763 16711680
0.329878 0.146036 0.0202267 16711680
0.329436 0.146665 0.0196639 16711680
0.329379 0.147344 0.0195874 16711680
0.329305 0.148021 0.0194899 16711680
0.329339 0.148711 0.0195278 16711680
0.330444 0.149535 0.0209177 16711680
0.330018 0.150167 0.0203743 16711680
0.328922 0.150716 0.0189871 16711680
0.328178 0.151311 0.0180433 16711680
0.328897 0.152085 0.0189455 16711680
0.328616 0.152736 0.0185862 16711680
0.328427 0.153399 0.0183429 16711680
0.328103 0.154046 0.0179281 16711680
0.32771 0.154685 0.0174282 16711680
0.327714 0.155372 0.0174277 16711680
0.327459 0.156028 0.0171005 16711680
0.327453 0.156713 0.0170884 16711680
0.327283 0.15738 0.0168697 16711680
0.327146 0.15805 0.016692 16711680
0.327048 0.158725 0.0165628 16711680
0.326732 0.159375 0.0161598 16711680
0.326696 0.160057 0.0161086 16711680
0.326829 0.160758 0.0162716 16711680
0.328511 0.161633 0.0183905 16711680
0.328865 0.162358 0.0188317 16711680
0.338719 0.111635 0.0305367 16711680
0.336984 0.112033 0.0283412 16711680
0.336345 0.112613 0.0275292 16711680
0.336301 0.113292 0.027469 16711680
0.336281 0.113975 0.0274396 16711680
0.335767 0.114577 0.0267849 16711680
0.334626 0.115078 0.0253398 16711680
0.334143 0.115687 0.0247242 16711680
0.333881 0.116332 0.0243884 16711680
0.333321 0.11693 0.0236768 16711680
0.333067 0.117577 0.0233514 16711680
0.332948 0.118246 0.0231965 16711680
0.332712 0.118896 0.0228934 16711680
0.33265 0.119574 0.0228097 16711680
0.332484 0.120235 0.0225964 16711680
0.332407 0.120911 0.0224937 16711680
0.332264 0.121576 0.0223088 16711680
0.332136 0.122244 0.0221413 16711680
0.332048 0.122918 0.0220257 16711680
0.331908 0.123584 0.0218449 16711680
0.332159 0.12431 0.0221568 16711680
0.332951 0.125116 0.0231521 16711680
0.332775 0.125776 0.0229245 16711680
0.332581 0.126434 0.0226748 16711680
0.332383 0.127091 0.0224204 16711680
0.332742 0.127831 0.0228685 16711680
0.33236 0.128461 0.0223821 16711680
0.332037 0.1291 0.0219688 16711680
0.33188 0.129764 0.0217657 16711680
0.331547 0.130402 0.0213411 16711680
0.331463 0.131077 0.0212293 16711680
0.331255 0.131734 0.0209616 16711680
0.331037 0.13239 0.0206819 16711680
0.331021 0.133074 0.0206568 16711680
0.330874 0.133741 0.0204661 16711680
0.330901 0.134431 0.0204955 16711680
0.330763 0.135099 0.0203173 16711680
0.330795 0.13579 0.0203526 16711680
0.330718 0.136466 0.0202503 16711680
0.330745 0.137156 0.0202799 16711680
0.330666 0.137832 0.0201746 16711680
0.330784 0.138535 0.0203199 16711680
0.33105 0.139257 0.0206511 16711680
0.331561 0.140013 0.0212916 16711680
0.330771 0.140592 0.020288 16711680
0.330643 0.141261 0.0201222 16711680
0.331078 0.142005 0.0206661 16711680
0.331647 0.142766 0.0213802 16711680
0.330898 0.143353 0.0204295 16711680
0.329778 0.143892 0.0190104 16711680
0.32841 0.1444 0.0172774 16711680
0.330031 0.145297 0.0193205 16711680
0.330248 0.146011 0.0195894 16711680
0.32993 0.146657 0.0191829 16711680
0.330088 0.147363 0.0193777 16711680
0.329993 0.148036 0.0192535 16711680
0.330686 0.148809 0.0201235 16711680
0.331253 0.149566 0.0208348 16711680
0.330514 0.150158 0.0198966 16711680
0.329402 0.150706 0.0184872 16711680
0.329202 0.151367 0.0182298 16711680
0.329393 0.152076 0.0184662 16711680
0.329164 0.152734 0.0181719 16711680
0.329046 0.153406 0.0180181 16711680
0.328729 0.154054 0.0176134 16711680
0.328436 0.154704 0.0172378 16711680
0.328372 0.155383 0.0171521 16711680
0.328124 0.15604 0.0168349 16711680
0.328138 0.156727 0.0168468 16711680
0.327939 0.15739 0.0165917 16711680
0.327863 0.158068 0.0164909 16711680
0.327695 0.158734 0.0162735 16711680
0.327375 0.159384 0.0158643 16711680
0.327386 0.160071 0.0158728 16711680
0.328343 0.160865 0.0170778 16711680
0.329213 0.161649 0.0181719 16711680
0.329563 0.162372 0.0186095 16711680
0.337133 0.111966 0.0274284 16711680
0.336902 0.112614 0.0271312 16711680
0.337492 0.113396 0.0278726 16711680
0.336863 0.113979 0.0270725 16711680
0.336207 0.114558 0.0262384 16711680
0.335123 0.115069 0.0248638 16711680
0.334616 0.115674 0.0242175 16711680
0.334441 0.116333 0.0239921 16711680
0.333843 0.116924 0.023232 16711680
0.33362 0.117576 0.0229446 16711680
0.333486 0.118242 0.022771 16711680
0.333296 0.1189 0.0225261 16711680
0.333253 0.119581 0.022467 16711680
0.33307 0.12024 0.0222312 16711680
0.332985 0.120914 0.0221182 16711680
0.332805 0.121573 0.0218856 16711680
0.332695 0.122244 0.0217426 16711680
0.332605 0.122918 0.0216244 16711680
0.332408 0.123575 0.0213706 16711680
0.332521 0.12428 0.0215079 16711680
0.333427 0.125104 0.0226486 16711680
0.333685 0.125829 0.0229701 16711680
0.333485 0.126485 0.0227127 16711680
0.332956 0.127093 0.0220395 16711680
0.333429 0.12785 0.0226333 16711680
0.333263 0.128512 0.0224186 16711680
0.333027 0.129163 0.0221158 16711680
0.332727 0.129806 0.0217311 16711680
0.332243 0.130422 0.021114 16711680
0.332214 0.131105 0.0210731 16711680
0.331889 0.131745 0.0206572 16711680
0.331665 0.132399 0.0203692 16711680
0.331639 0.133083 0.0203321 16711680
0.331509 0.133751 0.0201635 16711680
0.331517 0.134439 0.0201688 16711680
0.33137 0.135105 0.0199773 16711680
0.331445 0.135802 0.0200676 16711680
0.331295 0.136468 0.0198734 16711680
0.331295 0.137155 0.0198684 16711680
0.331208 0.137829 0.0197536 16711680
0.331385 0.13854 0.019973 16711680
0.332086 0.139322 0.0208552 16711680
0.332082 0.140007 0.0208451 16711680
0.331273 0.140584 0.0198171 16711680
0.331428 0.141291 0.0200083 16711680
0.332327 0.142096 0.0211412 16711680
0.332242 0.14277 0.0210284 16711680
0.331336 0.143336 0.0198785 16711680
0.329937 0.143839 0.0181053 16711680
0.329297 0.144442 0.0172913 16711680
0.331055 0.145357 0.0195091 16711680
0.330992 0.146035 0.0194246 16711680
0.330301 0.146632 0.0185466 16711680
0.330705 0.147369 0.0190525 16711680
0.330655 0.148049 0.0189848 16711680
0.331726 0.148869 0.0203339 16711680
0.331653 0.149545 0.0202365 16711680
0.330652 0.150105 0.0189663 16711680
0.329939 0.150702 0.01806 16711680
0.329924 0.151386 0.0180361 16711680
0.329997 0.152081 0.0181241 16711680
0.329692 0.15273 0.0177341 16711680
0.32957 0.153401 0.0175745 16711680
0.329315 0.154056 0.0172476 16711680
0.329088 0.154715 0.0169553 16711680
0.329002 0.15539 0.0168418 16711680
0.328768 0.156049 0.0165422 16711680
0.328839 0.156743 0.0166266 16711680
0.32857 0.157398 0.0162817 16711680
0.328564 0.158083 0.0162697 16711680
0.328364 0.158746 0.0160114 16711680
0.328007 0.159391 0.0155562 16711680
0.32812 0.16009 0.0156944 16711680
0.329796 0.160966 0.0178088 16711680
0.329921 0.161664 0.0179622 16711680
0.3304 0.162402 0.0185626 16711680
0.335823 0.115778 0.0246404 16711680
0.335133 0.116354 0.0237627 16711680
0.334509 0.116941 0.0229677 16711680
0.334292 0.117594 0.0226887 16711680
0.334061 0.118245 0.0223923 16711680
0.333873 0.118903 0.0221498 16711680
0.333825 0.119583 0.0220846 16711680
0.333633 0.12024 0.0218363 16711680
0.333533 0.120912 0.0217054 16711680
0.33338 0.121576 0.0215067 16711680
0.333267 0.122246 0.0213597 16711680
0.333168 0.122918 0.0212297 16711680
0.333 0.12358 0.0210129 16711680
0.333031 0.124272 0.0210466 16711680
0.333412 0.125017 0.0215249 16711680
0.334197 0.125822 0.0225133 16711680
0.334288 0.126522 0.022624 16711680
0.333756 0.127129 0.0219454 16711680
0.334167 0.127876 0.0224611 16711680
0.334297 0.128582 0.0226214 16711680
0.33394 0.129215 0.0221652 16711680
0.333397 0.129822 0.0214731 16711680
0.332938 0.130442 0.0208871 16711680
0.33291 0.131124 0.0208474 16711680
0.332519 0.131755 0.0203487 16711680
0.332294 0.132409 0.0200584 16711680
0.332321 0.1331 0.0200881 16711680
0.332085 0.133753 0.0197846 16711680
0.332175 0.134453 0.0198941 16711680
0.331958 0.135109 0.0196146 16711680
0.332054 0.135809 0.0197314 16711680
0.331871 0.13647 0.0194955 16711680
0.331869 0.137157 0.0194881 16711680
0.331824 0.137837 0.0194275 16711680
0.332528 0.13862 0.0203125 16711680
0.333175 0.139394 0.0211276 16711680
0.332423 0.139977 0.0201705 16711680
0.331745 0.140572 0.0193088 16711680
0.332397 0.141345 0.020129 16711680
0.333321 0.142154 0.0212933 16711680
0.332595 0.142743 0.0203699 16711680
0.33168 0.143308 0.0192071 16711680
0.331062 0.143913 0.0184214 16711680
0.331354 0.144637 0.0187862 16711680
0.331668 0.145363 0.0191783 16711680
0.331558 0.146035 0.0190349 16711680
0.331072 0.146659 0.0184153 16711680
0.331512 0.1474 0.0189674 16711680
0.332009 0.148149 0.0195907 16711680
0.332424 0.148886 0.0201122 16711680
0.331951 0.149512 0.0195086 16711680
0.330702 0.150041 0.017924 16711680
0.33056 0.150709 0.0177397 16711680
0.330995 0.151449 0.0182854 16711680
0.330656 0.152093 0.017851 16711680
0.330264 0.152731 0.0173504 16711680
0.330243 0.153414 0.0173192 16711680
0.329897 0.154058 0.0168768 16711680
0.329686 0.154719 0.0166055 16711680
0.329653 0.1554 0.0165581 16711680
0.329466 0.156064 0.0163176 16711680
0.32951 0.156755 0.0163678 16711680
0.329257 0.157412 0.0160435 16711680
0.329258 0.158098 0.01604 16711680
0.329025 0.158757 0.015741 16711680
0.328659 0.159401 0.0152726 16711680
0.328893 0.160113 0.0155642 16711680
0.330566 0.160989 0.0176764 16711680
0.33038 0.161652 0.0174376 16711680
0.330699 0.162373 0.0178365 16711680
0.334221 0.120932 0.0214695 16711680
0.333955 0.121578 0.0211289 16711680
0.33381 0.122244 0.0209403 16711680
0.333692 0.122913 0.0207865 16711680
0.333537 0.123577 0.0205848 16711680
0.333605 0.124274 0.0206674 16711680
0.333762 0.124985 0.0208607 16711680
0.334827 0.125833 0.0222055 16711680
0.335037 0.12655 0.0224667 16711680
0.334667 0.127181 0.021993 16711680
0.334706 0.127873 0.022038 16711680
0.335049 0.12861 0.0224688 16711680
0.334734 0.12925 0.022065 16711680
0.334132 0.129848 0.0212983 16711680
0.333648 0.130464 0.0206807 16711680
0.333603 0.131143 0.0206189 16711680
0.333225 0.131776 0.020135 16711680
0.333134 0.132449 0.0200157 16711680
0.333042 0.133123 0.0198944 16711680
0.332898 0.133789 0.0197076 16711680
0.332902 0.134476 0.0197083 16711680
0.33273 0.135139 0.0194861 16711680
0.3327 0.135821 0.0194424 16711680
0.33246 0.136474 0.0191342 16711680
0.332558 0.137174 0.019254 16711680
0.332705 0.137881 0.019436 16711680
0.333782 0.138714 0.0207953 16711680
0.333823 0.139405 0.0208429 16711680
0.332701 0.139939 0.019417 16711680
0.332492 0.140597 0.0191472 16711680
0.333433 0.141409 0.0203352 16711680
0.333825 0.142146 0.0208262 16711680
0.332906 0.142709 0.0196579 16711680
0.332344 0.143321 0.0189416 16711680
0.332746 0.144059 0.0194465 16711680
0.332376 0.144697 0.0189731 16711680
0.332098 0.145346 0.0186162 16711680
0.331928 0.14601 0.0183963 16711680
0.331766 0.146675 0.0181865 16711680
0.332125 0.147407 0.0186368 16711680
0.333244 0.148234 0.0200499 16711680
0.331046 0.150014 0.0172521 16711680
0.331464 0.150751 0.0177765 16711680
0.33178 0.151476 0.0181727 16711680
0.331319 0.152105 0.0175842 16711680
0.330833 0.152731 0.0169636 16711680
0.330827 0.153416 0.0169514 16711680
0.330535 0.154067 0.0165776 16711680
0.330424 0.154739 0.0164313 16711680
0.330332 0.155414 0.0163107 16711680
0.330149 0.156078 0.0160738 16711680
0.330152 0.156764 0.0160733 16711680
0.329961 0.157428 0.0158267 16711680
0.329919 0.158109 0.0157691 16711680
0.329642 0.158762 0.0154138 16711680
0.329456 0.159427 0.015174 16711680
0.329913 0.160165 0.0157478 16711680
0.331253 0.161002 0.0174414 16711680
0.330853 0.161642 0.0169291 16711680
0.332087 0.162464 0.0184879 16711680
0.33353 0.124866 0.0194592 16711680
0.335672 0.125876 0.0221704 16711680
0.335841 0.126587 0.0223806 16711680
0.33551 0.127224 0.0219554 16711680
0.335274 0.127875 0.0216526 16711680
0.335934 0.128658 0.0224844 16711680
0.335627 0.129299 0.0220902 16711680
0.334938 0.129884 0.0212122 16711680
0.334607 0.130522 0.0207887 16711680
0.334233 0.131154 0.0203094 16711680
0.333951 0.131799 0.0199481 16711680
0.333966 0.132488 0.0199629 16711680
0.333741 0.133142 0.0196729 16711680
0.333658 0.133817 0.0195626 16711680
0.333568 0.134491 0.0194449 16711680
0.333499 0.135168 0.0193529 16711680
0.333433 0.135845 0.0192645 16711680
0.333138 0.13649 0.0188855 16711680
0.333448 0.13722 0.0192748 16711680
0.334566 0.13806 0.0206867 16711680
0.334537 0.138741 0.0206465 16711680
0.333955 0.139347 0.0199041 16711680
0.333197 0.13993 0.0189379 16711680
0.3334 0.140643 0.0191913 16711680
0.334464 0.141472 0.0205361 16711680
0.334426 0.142152 0.0204829 16711680
0.333178 0.142671 0.0188957 16711680
0.333045 0.143339 0.0187231 16711680
0.333808 0.144125 0.0196865 16711680
0.333245 0.144737 0.0189679 16711680
0.332838 0.145369 0.018447 16711680
0.332636 0.146029 0.0181865 16711680
0.332371 0.14668 0.0178456 16711680
0.332945 0.147439 0.018569 16711680
0.334018 0.148261 0.0199248 16711680
0.333324 0.148858 0.0190414 16711680
0.332344 0.14942 0.0177939 16711680
0.331798 0.150037 0.0170976 16711680
0.332388 0.150796 0.0178413 16711680
0.332413 0.151484 0.0178673 16711680
0.33196 0.152114 0.0172892 16711680
0.331532 0.152747 0.0167412 16711680
0.331484 0.153427 0.0166758 16711680
0.33118 0.154076 0.0162863 16711680
0.331162 0.15476 0.0162598 16711680
0.331018 0.155428 0.0160717 16711680
0.330818 0.15609 0.0158144 16711680
0.330842 0.156779 0.0158397 16711680
0.330671 0.157444 0.0156188 16711680
0.330624 0.158125 0.0155551 16711680
0.330249 0.158767 0.0150745 16711680
0.330293 0.159458 0.0151255 16711680
0.33172 0.160306 0.0169302 16711680
0.331784 0.160998 0.0170078 16711680
0.331341 0.161633 0.0164409 16711680
0.336818 0.128706 0.0224999 16711680
0.336459 0.129339 0.0220399 16711680
0.335733 0.129918 0.0211146 16711680
0.33542 0.130558 0.0207129 16711680
0.334932 0.131174 0.0200895 16711680
0.334722 0.13183 0.0198185 16711680
0.334723 0.132516 0.0198153 16711680
0.334428 0.13316 0.019436 16711680
0.334492 0.133856 0.0195129 16711680
0.33428 0.134512 0.0192395 16711680
0.334337 0.135207 0.0193077 16711680
0.334132 0.135864 0.0190439 16711680
0.334316 0.136576 0.019272 16711680
0.335307 0.137399 0.0205256 16711680
0.335487 0.138109 0.0207494 16711680
0.334976 0.138724 0.020097 16711680
0.334033 0.139281 0.0188961 16711680
0.334091 0.139975 0.0189649 16711680
0.334423 0.140706 0.0193821 16711680
0.335259 0.141503 0.0204377 16711680
0.335008 0.142154 0.0201147 16711680
0.333899 0.142692 0.0187031 16711680
0.334071 0.1434 0.0189177 16711680
0.334464 0.144137 0.0194118 16711680
0.333845 0.144742 0.0186222 16711680
0.3336 0.145395 0.0183064 16711680
0.333292 0.146041 0.0179112 16711680
0.333085 0.1467 0.0176442 16711680
0.334462 0.147561 0.0193863 16711680
0.334578 0.148261 0.0195295 16711680
0.333674 0.148831 0.0183783 16711680
0.332536 0.149373 0.0169289 16711680
0.333215 0.150144 0.0177864 16711680
0.333253 0.150833 0.0178305 16711680
0.333142 0.151505 0.0176848 16711680
0.332618 0.152126 0.0170164 16711680
0.332258 0.152767 0.0165539 16711680
0.332136 0.153438 0.0163952 16711680
0.331835 0.154087 0.0160091 16711680
0.331866 0.154776 0.0160437 16711680
0.331647 0.155436 0.0157621 16711680
0.331563 0.156111 0.0156504 16711680
0.331494 0.156789 0.0155582 16711680
0.331272 0.157448 0.0152718 16711680
0.331226 0.158129 0.015209 16711680
0.330894 0.158776 0.0147836 16711680
0.331181 0.159495 0.0151433 16711680
0.332834 0.160369 0.0172365 16711680
0.332297 0.160992 0.0165505 16711680
0.331777 0.161618 0.0158859 16711680
0.335759 0.131213 0.020032 16711680
0.335483 0.131859 0.0196772 16711680
0.335533 0.132552 0.0197363 16711680
0.335206 0.133192 0.0193162 16711680
0.335466 0.133915 0.0196426 16711680
0.33516 0.134557 0.0192492 16711680
0.335259 0.135257 0.0193708 16711680
0.335181 0.135932 0.0192668 16711680
0.336243 0.136766 0.020611 16711680
0.336786 0.137526 0.0212969 16711680
0.336085 0.138114 0.0204017 16711680
0.335404 0.138706 0.0195328 16711680
0.334792 0.139308 0.0187519 16711680
0.334992 0.140021 0.0190016 16711680
0.33551 0.140776 0.019654 16711680
0.33613 0.141545 0.0204374 16711680
0.335617 0.142161 0.0197812 16711680
0.334734 0.142728 0.0186555 16711680
0.335303 0.143489 0.019375 16711680
0.335125 0.14415 0.0191438 16711680
