# .PCD v0.7 - Point Cloud Data file format
VERSION 0.7
FIELDS x y z
SIZE 4 4 4
TYPE F F F
COUNT 1 1 1
WIDTH 1394
HEIGHT 1
VIEWPOINT 0 0 0 1 0 0 0
POINTS 1394
DATA ascii
-0.068344079 0.07582821 1.5119888
-0.061382584 0.07287325 1.5114888
-0.058516175 0.074073873 1.5115591
-0.055297479 0.075817347 1.5118923
-0.048645142 0.07388483 1.5115106
-0.045855686 0.074099526 1.510841
-0.042299405 0.073552087 1.5102781
-0.03779282 0.073951885 1.5090607
-0.033853408 0.074034631 1.5097998
-0.029843263 0.074021995 1.5095612
-0.025958987 0.073939756 1.5089324
-0.02331352 0.074452102 1.5081472
-0.08522144 0.077901393 1.5100703
-0.083696403 0.079146937 1.5112926
-0.072538115 0.07957352 1.5110513
-0.070484541 0.077670559 1.5116446
-0.057296678 0.078229256 1.5108799
-0.053931646 0.078116164 1.5110751
-0.049925663 0.078120723 1.5111935
-0.046028804 0.077956825 1.5105979
-0.041433316 0.078218177 1.5087212
-0.03812629 0.078207567 1.5084269
-0.033864696 0.076887056 1.5084107
-0.029868523 0.076778315 1.5084015
-0.026703747 0.076510541 1.5081486
0.0097148493 0.079639278 1.5116405
-0.08426749 0.081393048 1.5095125
-0.083080567 0.082292184 1.5107044
-0.076296635 0.083775856 1.5103956
-0.073902026 0.082448654 1.5110613
-0.069680899 0.083853506 1.5118681
-0.065696821 0.083098494 1.5117024
-0.061916914 0.082539245 1.5115466
-0.057920903 0.082097538 1.5104555
-0.05380138 0.081914857 1.5099267
-0.04992222 0.081999257 1.5095973
-0.046864521 0.08103539 1.5094407
-0.041153353 0.080516562 1.5081013
-0.038321577 0.080799364 1.5082064
-0.024157265 0.080989294 1.5087056
-0.023490017 0.081433475 1.5086908
-0.00081064913 0.082274765 1.5105588
0.011025753 0.081611812 1.5106598
0.012795096 0.081826143 1.5103285
-0.077596977 0.08654207 1.5096484
-0.073975161 0.086133823 1.5107358
-0.069980703 0.086151488 1.5110887
-0.066003621 0.086084329 1.5107882
-0.062573001 0.085185386 1.5109718
-0.050840896 0.084326543 1.5085267
-0.00882708 0.08511202 1.5108112
-0.00081078993 0.08441598 1.5103295
0.011884218 0.084467128 1.5112381
0.012555955 0.084491044 1.511665
-0.069984704 0.089868426 1.5091618
-0.066374525 0.089156553 1.5094115
0.087486543 -0.0084508527 1.5128726
0.08980979 -0.009776609 1.5145435
0.094165988 -0.0091346875 1.5151632
0.097150743 -0.010327154 1.5144246
0.079606064 -0.0054495065 1.5157659
0.081905752 -0.0054117874 1.5155783
0.085595988 -0.0053353482 1.5149602
0.090395562 -0.0063380515 1.513158
0.093486175 -0.0064975666 1.5132992
0.09614481 -0.0077788839 1.5121638
0.10550649 -0.007779194 1.5120319
-0.0096558975 -0.00068863091 1.5157049
-0.0041624075 -0.0004205443 1.5157104
-0.0031569197 -0.00075553509 1.5154586
0.078647979 -0.0016033513 1.5140277
0.081366688 -0.0021637797 1.5150837
0.084182546 -0.0030990387 1.5136517
0.090962537 -0.0035981731 1.5122366
-0.008848941 0.0012285586 1.5151727
-0.0058793668 0.0016116356 1.5150598
-0.0031567533 0.00091962627 1.5153815
0.071555786 0.0036004675 1.5156817
0.0742395 0.0025503663 1.5140283
0.077608824 0.0017750488 1.5131854
0.080428429 0.0004717909 1.5144197
0.070734031 0.00548654 1.515052
0.073539659 0.0048498046 1.5134125
0.07655786 0.004709193 1.5129539
0.066417009 0.010286125 1.5131539
0.069050655 0.00860787 1.5122023
0.03202172 0.015666837 1.5159938
0.039097268 0.01456055 1.5142468
0.040054012 0.013987787 1.5156215
0.058126625 0.015277428 1.5135002
0.061534554 0.01484671 1.512629
0.030697001 0.01871427 1.5140029
0.032489456 0.018150428 1.515481
0.038979243 0.017881284 1.5129181
0.041210443 0.017968249 1.5150088
0.05483643 0.017302575 1.5150421
0.057577882 0.017478425 1.5142041
0.061025366 0.016679624 1.5131183
0.010074297 0.023538867 1.5157603
0.015392283 0.02329188 1.5149494
0.016928677 0.023688439 1.5145996
0.020629579 0.023710113 1.5159773
0.026481371 0.022868354 1.5134516
0.03062297 0.021856233 1.5130796
0.033365417 0.021754699 1.5143555
0.039983183 0.020987481 1.5129269
0.040720768 0.021425311 1.5154841
0.04726205 0.022367867 1.5157557
0.049793333 0.022337433 1.5136812
0.052472789 0.021435186 1.5130081
-0.0088528227 0.027728466 1.5157907
-0.0055019581 0.027723532 1.5155252
-0.0014823544 0.027495017 1.5152456
0.0023866906 0.027004071 1.51485
0.0063981884 0.026332147 1.5151526
0.0098322527 0.026287803 1.5157441
0.014709554 0.026732579 1.5152124
0.018013863 0.025864337 1.5139048
0.022162683 0.025270797 1.5145756
0.024841383 0.024572106 1.5140151
0.031055838 0.024769939 1.512445
0.034416929 0.027236886 1.5132297
0.043410357 0.024714306 1.5158076
0.046066657 0.025512282 1.5141752
0.049493935 0.02715024 1.5132965
0.052668378 0.027666042 1.5122137
-0.016893199 0.029739767 1.5158001
-0.01399071 0.030815782 1.5147882
-0.010030544 0.030401543 1.5153925
-0.0044978531 0.028398756 1.5157976
-0.0010808088 0.029604308 1.5157471
0.0022495722 0.030079672 1.5155833
0.0057055149 0.029938353 1.5154479
0.010937854 0.028935278 1.5151745
0.014431231 0.029124452 1.5131836
0.017738851 0.029065145 1.5132626
0.031951863 0.031685192 1.5126398
0.033560332 0.030185325 1.5140837
0.050332583 0.02863545 1.5148641
0.053876933 0.029356468 1.5139592
0.057635486 0.030469894 1.5135735
0.061717022 0.030659409 1.5140852
0.074048787 0.031242142 1.5151899
-0.034838434 0.035626166 1.5152116
-0.016668646 0.034783833 1.5136298
-0.013869278 0.034075096 1.5148544
-0.0097596068 0.034015916 1.5155975
-0.005888286 0.034342837 1.514778
-0.0017683303 0.034107361 1.5142021
0.0020522964 0.03385504 1.5134751
0.0057357103 0.033416867 1.5130121
0.0085502481 0.033694211 1.5128001
0.031230919 0.034029718 1.5127913
0.033164959 0.033065278 1.5145828
0.054125041 0.034862567 1.5143378
0.058108762 0.033989195 1.5145558
0.061364312 0.034007762 1.5139791
0.072915927 0.034291919 1.513862
0.079352461 0.035542157 1.5151199
-0.033445366 0.037412442 1.5142913
-0.030526679 0.038249802 1.5132794
-0.025587013 0.038930219 1.5147576
-0.021802263 0.038635354 1.5148337
-0.017824488 0.037486773 1.5134914
-0.013938964 0.037866868 1.5132966
-0.0099324901 0.037130173 1.5136442
-0.0058275801 0.036709841 1.5130162
-0.0021483102 0.036528524 1.5124366
0.027935196 0.038367111 1.512363
0.029283121 0.037378129 1.5129294
0.03402717 0.039792623 1.5156846
0.047998458 0.038373109 1.5124987
0.050012454 0.037041407 1.512737
0.054120824 0.036907036 1.5133042
0.056063317 0.036393307 1.5135654
0.061250988 0.037891258 1.5141479
0.074075125 0.038215749 1.5144141
0.078191005 0.038312253 1.5142483
0.081402995 0.0385837 1.5149616
0.093794018 0.039432328 1.5153779
0.12854868 0.039806612 1.5151793
-0.029443583 0.041203406 1.5133309
-0.02656679 0.043077108 1.513329
-0.021873914 0.040381439 1.5126626
0.022716189 0.043304984 1.5135294
0.02648918 0.042786833 1.514412
0.029962042 0.042392999 1.5148169
0.033531409 0.042218938 1.5152879
0.037002698 0.043289907 1.5155571
0.060755193 0.042087942 1.513685
0.070509173 0.042163078 1.5122923
0.074272417 0.041333567 1.5138024
0.077596739 0.041004829 1.5130984
0.081835628 0.04175273 1.5134748
0.085743248 0.042476445 1.5153613
0.090144292 0.042571835 1.5150325
0.093986079 0.041799609 1.5150204
0.097877979 0.042376902 1.5149498
0.10040137 0.043496866 1.515687
0.13101293 0.041904349 1.513978
-0.02478387 0.044724263 1.514728
-0.022299698 0.04583079 1.5131223
-0.018858733 0.047722895 1.5121166
0.01459027 0.04698867 1.5149928
0.0184136 0.046386771 1.5149755
0.022290705 0.046136498 1.5149179
0.026216537 0.045982487 1.5148573
0.02957475 0.045330916 1.5146722
0.033882886 0.044552911 1.5142012
0.036005452 0.044445027 1.5143145
0.060281459 0.044633742 1.5129884
0.13144019 0.046132401 1.5136467
0.13283697 0.047085363 1.5155491
0.13814519 0.04736476 1.5154456
-0.045706697 0.051692281 1.5156149
-0.043359309 0.051857445 1.515559
-0.017195977 0.048414588 1.5128369
-0.013307209 0.050247893 1.5143026
-0.010254185 0.051423632 1.5147712
-0.0048286659 0.050852399 1.5142866
-0.0027437939 0.051242333 1.5129325
0.0068126605 0.049355544 1.5129911
0.010938696 0.049126621 1.5141854
0.014156707 0.049112398 1.5149643
0.018277679 0.048829067 1.515327
0.021519164 0.048725922 1.515583
0.073288091 0.051493146 1.5125196
0.13142093 0.05014402 1.5133991
0.13408986 0.050321609 1.5147336
0.1382862 0.050449308 1.5143975
-0.10901953 0.053585798 1.5152591
-0.10653039 0.055060256 1.5134002
-0.045140103 0.052743915 1.5153345
-0.041847326 0.053317245 1.5147166
-0.037863668 0.054505121 1.5137988
-0.034426842 0.055339552 1.5125039
-0.012203502 0.0525284 1.5157073
-0.0099937953 0.054176155 1.5137919
-0.0048274668 0.052467089 1.513949
-0.002150238 0.052446246 1.5133498
0.051999718 0.055751879 1.5120535
0.054507244 0.054783065 1.5123695
0.057200201 0.054098647 1.5125451
0.073527344 0.053990655 1.5137488
0.13132268 0.052449144 1.5122524
0.13418691 0.053387877 1.5129395
0.13764396 0.053545177 1.5128471
-0.10875431 0.058980834 1.5141186
-0.10607357 0.05839546 1.5144113
-0.10257541 0.058512151 1.5136324
-0.061697766 0.058806047 1.5159516
-0.058377545 0.058166809 1.5156349
-0.053799488 0.057608038 1.5150865
-0.050219089 0.057712149 1.5152085
-0.045748863 0.058515605 1.5143455
-0.042115621 0.058971524 1.5138009
-0.037805695 0.058491874 1.5149539
-0.034138795 0.058410257 1.5144855
-0.030842189 0.0594078 1.5136938
-0.0086473553 0.057453763 1.5147598
-0.0066758166 0.058669195 1.5133759
0.047657017 0.058095451 1.5121449
0.050119121 0.057550531 1.5124575
0.053635608 0.05741984 1.5130781
0.056052424 0.056797214 1.5131418
0.12896711 0.059135418 1.5120817
-0.1120282 0.063244641 1.5145229
-0.10955753 0.062424589 1.51438
-0.10594894 0.062194325 1.5148513
-0.10244463 0.062381703 1.5133731
-0.097863503 0.061844572 1.5132877
-0.084612586 0.063955948 1.5158846
-0.083576471 0.062927119 1.5153521
-0.072528705 0.063941449 1.5156801
-0.071191594 0.062938817 1.5157766
-0.060454492 0.063595995 1.515559
-0.045192346 0.063412629 1.5157477
-0.042010907 0.062232964 1.515166
-0.038068764 0.062628701 1.5141547
-0.033820141 0.061526563 1.5134099
-0.029831696 0.061601125 1.5130171
-0.026766809 0.062573597 1.5124329
-0.0054978952 0.061420292 1.5139666
-0.0034863458 0.061788809 1.5126318
-0.12012372 0.067967109 1.5150409
-0.11794265 0.067390874 1.5148841
-0.1135364 0.066836424 1.513851
-0.10996726 0.066101603 1.5146199
-0.10610712 0.066305183 1.5135288
-0.10305684 0.065271974 1.5124445
-0.088547207 0.067912072 1.5142916
-0.086794138 0.066813573 1.5154594
-0.082634658 0.06682989 1.5155482
-0.073663943 0.06646511 1.5150992
-0.071858764 0.064612165 1.5156875
-0.060431015 0.066251725 1.5149446
-0.058154073 0.06692937 1.5151371
-0.054051492 0.06703116 1.5154045
-0.049877819 0.066553034 1.5152867
-0.046021849 0.066241115 1.5148271
-0.041982695 0.066208802 1.514114
-0.038000483 0.066137828 1.5136076
-0.035221178 0.06516891 1.5133345
-0.11858329 0.069321632 1.515355
-0.11345091 0.069682822 1.5135555
-0.10987066 0.069952682 1.5135226
-0.10711975 0.069594152 1.5127131
-0.0887696 0.069392629 1.5131719
-0.08617124 0.070181154 1.5144796
-0.083920598 0.069302931 1.515451
-0.077767789 0.071039215 1.514688
-0.075171158 0.069269486 1.5148236
-0.064831719 0.071663454 1.5159361
-0.062166408 0.071191795 1.5154448
-0.058000617 0.069729343 1.5136638
-0.054041672 0.06956879 1.5142511
-0.049950853 0.069626436 1.5140779
-0.045977585 0.069858707 1.5133339
-0.041933306 0.069892406 1.5126853
-0.038837198 0.069442779 1.5126504
-0.085547268 0.073845774 1.51403
-0.081937507 0.074495479 1.514683
-0.079323433 0.073868446 1.515131
-0.0728793 0.075354777 1.5158813
-0.069923535 0.074994519 1.5154163
-0.065948069 0.074372664 1.5137711
-0.062208999 0.07457453 1.5132806
-0.057728961 0.074219316 1.5128239
-0.053903826 0.074077457 1.5125439
-0.050277069 0.074227661 1.5124515
-0.047610354 0.073812991 1.5120118
0.0063331588 0.075870022 1.515409
0.010434372 0.075418599 1.5156376
0.013091198 0.075828485 1.5156879
-0.084625378 0.077059098 1.5129789
-0.082058407 0.078003012 1.5140045
-0.078281231 0.077963926 1.5153772
-0.074294209 0.077859402 1.5150648
-0.070033021 0.078147888 1.5132748
-0.066056103 0.078231014 1.5131841
-0.062029794 0.078216597 1.5129468
-0.059015147 0.078020319 1.5128762
0.0068418896 0.077958301 1.5141615
0.010101528 0.078056775 1.5144787
0.013425206 0.078101784 1.5155491
-0.081284754 0.082152016 1.513685
-0.078196645 0.082146607 1.5143262
-0.074363336 0.08133471 1.5133837
-0.07006906 0.08205688 1.512395
-0.06632302 0.081280023 1.5124476
-0.062237691 0.080614574 1.5121619
-0.059321336 0.080515504 1.5121235
-0.00014315032 0.083174258 1.5120596
0.0075604268 0.081222996 1.5151862
0.0094751492 0.082578868 1.5134059
0.013240394 0.080576956 1.5135413
-0.080818452 0.085442431 1.5127943
-0.078881629 0.085219763 1.5133414
-0.00014318163 0.084517434 1.5121448
0.010674578 0.08559072 1.5143023
0.01257242 0.085941195 1.5136333
-0.080409825 0.088903427 1.5122595
-0.079741701 0.088904321 1.5122824
0.083577387 -0.0089819655 1.5178546
0.085710391 -0.0093154721 1.5190798
0.090796538 -0.011350314 1.5170504
0.09395919 -0.011054754 1.5172483
0.096641153 -0.011602174 1.516445
-0.00579966 -0.0045453613 1.5184052
-0.003498564 -0.0044492539 1.5183519
0.079323903 -0.0056974017 1.5176934
0.082106955 -0.0062476913 1.5173694
0.085264578 -0.0066130515 1.5176759
-0.0085567674 -0.0020678269 1.5173707
-0.0058918325 -0.002146346 1.5173931
-0.0018084471 -0.002180336 1.5180916
0.0012001015 -0.0010935379 1.5195193
0.074544147 -0.0026440723 1.5187824
0.077310093 -0.0024714784 1.5167737
0.083276317 -0.0032393727 1.5166607
0.084346913 -0.0037758725 1.5166065
-0.0091935713 0.0024297312 1.5168328
-0.0056175287 0.0034910303 1.5166959
-0.0015513384 0.0021293112 1.5180023
0.00089477992 0.0020823928 1.5194324
0.071046121 0.0036086289 1.5191185
0.074011497 0.0015919119 1.5179234
-0.011554543 0.0069649382 1.5186965
-0.0055604088 0.005785401 1.5189453
-0.0018213774 0.0059589329 1.5189861
0.00082709687 0.0054764296 1.5197051
0.040825587 0.0076402808 1.5194073
0.066451095 0.0068041682 1.5179793
0.069411695 0.006214859 1.5166329
-0.0091640633 0.0087940497 1.5198305
-0.0060532317 0.0091517745 1.5194477
-0.0020163567 0.0091250315 1.5194045
0.034234885 0.010795001 1.519043
0.039475467 0.011669314 1.5191461
0.040740672 0.0099570304 1.5181575
0.062592775 0.0092535317 1.5194129
0.065717392 0.0094538871 1.5182587
0.068521559 0.0085277418 1.5177698
0.018414482 0.01537012 1.5198337
0.021474184 0.015216392 1.5197253
0.025760733 0.015249196 1.5189315
0.02983873 0.015271478 1.5177125
0.03390947 0.014109154 1.5182258
0.037219319 0.014320011 1.5188907
0.040936407 0.014170907 1.5172813
0.05553611 0.015683822 1.5175179
0.058879636 0.014339068 1.5172188
0.061911017 0.012999754 1.5175111
0.010174691 0.018999675 1.5194253
0.015515226 0.019269852 1.5182419
0.017965661 0.018086635 1.5193218
0.02091689 0.018510845 1.5196829
0.026269769 0.01827508 1.5192326
0.029188141 0.01767583 1.5182155
0.033986107 0.01800357 1.5183549
0.03653625 0.016805524 1.5179325
0.042916916 0.017840283 1.5166011
0.045812614 0.018483231 1.5185498
0.050256222 0.017595412 1.5189906
0.053443011 0.018285746 1.5176286
0.087179519 0.019063497 1.5191782
0.090574175 0.017054286 1.5197434
0.0072439588 0.023762954 1.5193766
0.011061625 0.022192359 1.517409
0.014092051 0.021846613 1.5172524
0.018384982 0.021961352 1.5177947
0.022222392 0.022098003 1.5175114
0.02562692 0.021589624 1.5173525
0.028022718 0.020710077 1.5171673
0.034376472 0.020364657 1.5163915
0.042371713 0.022239156 1.5179756
0.045590471 0.022105791 1.5177555
0.04950982 0.020832652 1.5178612
0.052520819 0.020382654 1.5176351
0.082503758 0.023102622 1.5197091
-0.021854678 0.027174046 1.5191221
-0.019277636 0.027785994 1.5189126
-0.013571806 0.025772529 1.5190119
-0.0101842 0.02640382 1.5181479
-0.0060690404 0.026869895 1.5177988
-0.0019638005 0.026715646 1.5181147
0.0024074106 0.025762578 1.5184534
0.0054951622 0.024690473 1.5185858
0.011472952 0.025351049 1.5161366
0.013862394 0.025446232 1.5164346
0.035396367 0.027751477 1.5169822
0.039458774 0.027107518 1.5184675
0.041156899 0.02548874 1.518476
0.045271132 0.027225727 1.5175341
0.077507623 0.02655155 1.5183989
0.081167184 0.024449104 1.5198567
-0.039447866 0.031838365 1.5198954
-0.020706199 0.02963591 1.5190263
-0.018001094 0.030173838 1.5177842
-0.013418744 0.02919697 1.5185795
-0.0096227219 0.02963357 1.5172788
-0.0059186895 0.030183509 1.5163221
-0.0023451939 0.030419968 1.516317
0.00052719668 0.029743532 1.5160166
0.0074985782 0.029618919 1.516494
0.0091463523 0.029276526 1.5166198
0.03494015 0.030311111 1.5175326
0.036639787 0.030332552 1.5179799
0.046857886 0.028843978 1.5189316
0.049853444 0.030011915 1.5181155
0.053499963 0.03095552 1.5168262
0.057533797 0.031780742 1.5170524
0.061585724 0.031527441 1.5177406
0.075392254 0.030379787 1.5172762
0.077352516 0.030355848 1.5191145
0.082644865 0.030785708 1.5189013
0.084530383 0.029155638 1.5198587
-0.037562508 0.034021314 1.5183525
-0.033967365 0.034923952 1.5177112
-0.029981015 0.035260756 1.5189857
-0.025879184 0.03498061 1.5188227
-0.021879124 0.034255877 1.5185002
-0.018386187 0.033856496 1.5177643
-0.010463273 0.034572583 1.5161076
-0.0055039693 0.032426625 1.5160878
-0.003493458 0.03242537 1.5160309
0.03406921 0.034809031 1.51757
0.041168854 0.035864152 1.5196054
0.050338209 0.034736603 1.5192214
0.053887989 0.033801734 1.5174483
0.057282154 0.033614274 1.5169352
0.062250897 0.033302601 1.5175765
0.074925326 0.034228116 1.5173877
0.077774875 0.034161866 1.5183462
0.081996545 0.034286849 1.517063
0.085718796 0.034848057 1.5181953
0.089681827 0.035672646 1.5192076
0.095958561 0.035879225 1.519743
0.098676428 0.035109989 1.5189427
0.11375146 0.035873875 1.5192659
0.11677362 0.035469674 1.5191835
0.12353095 0.035883877 1.5195346
-0.03636615 0.036484502 1.5174581
-0.029383946 0.036879592 1.517187
-0.025938388 0.037207667 1.5167576
-0.022198042 0.036729239 1.5165434
-0.019243866 0.036452562 1.5162005
0.029601591 0.039288718 1.5178105
0.034062184 0.039163429 1.5172749
0.038045432 0.038630828 1.5176399
0.041625377 0.038471814 1.5190824
0.044402316 0.039660003 1.5191116
0.050553642 0.036521979 1.5189571
0.062645458 0.038431246 1.5173384
0.074295171 0.037312895 1.5167739
0.077035032 0.037313391 1.5167713
0.082582757 0.03761996 1.5167404
0.086069681 0.038168147 1.5173159
0.09007898 0.03816111 1.5169909
0.094367668 0.037803382 1.5173311
0.098213509 0.038193796 1.5181878
0.10160135 0.0388804 1.5194926
0.10588836 0.039448664 1.5196407
0.10983573 0.038527727 1.5190939
0.11312795 0.037651919 1.5195025
0.11704384 0.03682759 1.5189415
0.12275851 0.037677918 1.5182956
0.12760843 0.037577808 1.5199845
0.13035391 0.039057069 1.5186157
0.13337018 0.039351683 1.519116
-0.028962648 0.042487342 1.5161672
-0.02728679 0.043492585 1.5161531
0.027120104 0.040934328 1.5166187
0.029699082 0.040499616 1.5170764
0.035379965 0.041147921 1.5162193
0.037813038 0.041454766 1.5167717
0.041363377 0.041143037 1.5176657
0.062516876 0.041365482 1.5169951
0.074262671 0.041152194 1.5160893
0.086298823 0.040955983 1.5163354
0.089909337 0.041245442 1.5164442
0.099042676 0.040741492 1.5171539
0.10232103 0.042136356 1.5178217
0.10608544 0.04225444 1.5184171
0.10858622 0.041021865 1.5191207
0.13199337 0.040505644 1.5161846
0.13410389 0.042286105 1.5177684
0.13686824 0.042983521 1.518693
-0.02629385 0.044519138 1.5168642
0.014824331 0.047848076 1.5161024
0.03002527 0.046522979 1.5165794
0.10320091 0.044553649 1.5173804
0.10599212 0.044845939 1.5174942
0.1343679 0.046013165 1.5170403
0.13748389 0.046262678 1.5174201
-0.11679244 0.050688922 1.5198792
-0.11401595 0.051361959 1.5184096
-0.11103735 0.051683731 1.5175786
-0.060548685 0.051946167 1.5180206
-0.058182847 0.051931098 1.5176007
-0.054122414 0.051562697 1.5166711
-0.050090257 0.0515537 1.5164371
-0.046733271 0.051213365 1.5163157
-0.017267562 0.048952911 1.5191588
-0.013898467 0.050774381 1.5178301
-0.0093704211 0.050935511 1.5181921
-0.0064839334 0.051417362 1.5171006
0.022643285 0.048518844 1.5160911
0.13537267 0.048566319 1.5163572
0.13671614 0.048902392 1.5163479
-0.1133365 0.054303773 1.5180044
-0.11071354 0.054227699 1.5182174
-0.072589315 0.055942934 1.5170175
-0.070095591 0.055345226 1.5175239
-0.066194676 0.054403514 1.5181342
-0.06237179 0.053432714 1.5182571
-0.057985771 0.053671572 1.5189339
-0.054211058 0.053998899 1.5191402
-0.050116643 0.054052569 1.5188538
-0.046289265 0.054577485 1.5178447
-0.042210419 0.055114649 1.5170544
-0.039194118 0.055743076 1.5164202
-0.012945852 0.053799644 1.5181018
-0.0113764 0.055427264 1.5170639
-0.11748219 0.056776125 1.5181735
-0.11379347 0.057643782 1.5189514
-0.11031435 0.057557825 1.51899
-0.078026764 0.059854053 1.5164419
-0.073684402 0.058396202 1.5182509
-0.070383988 0.056930412 1.5190809
-0.065778695 0.059529681 1.5172695
-0.062181447 0.05912026 1.5168445
-0.057917535 0.058137119 1.5181402
-0.054251269 0.058066361 1.5178815
-0.050156482 0.058042049 1.5175666
-0.04631548 0.057982922 1.5170203
-0.041848596 0.057126202 1.5166181
-0.038910288 0.056798309 1.5162388
-0.012234278 0.056356337 1.5194961
-0.01010147 0.058284611 1.5176668
-0.11362576 0.061949484 1.5192835
-0.11142891 0.060835902 1.5185679
-0.081624158 0.062612474 1.5168312
-0.078031622 0.062067572 1.5177045
-0.07380724 0.061662108 1.5192894
-0.069775604 0.061966311 1.5173305
-0.066265441 0.062028177 1.5181537
-0.06228523 0.061970629 1.5179243
-0.058143467 0.062274858 1.5172395
-0.054146409 0.062322166 1.5172549
-0.050109386 0.062307339 1.5169262
-0.046352461 0.06189771 1.516353
-0.0092300782 0.061085802 1.5181844
-0.0075163813 0.060930397 1.5162449
-0.12039949 0.067451119 1.5185255
-0.11747881 0.066201381 1.5188311
-0.11493111 0.065163657 1.5185885
-0.084996752 0.066215433 1.5167353
-0.081818387 0.06560941 1.5170594
-0.077834383 0.065751784 1.5182989
-0.074356511 0.065476991 1.5183451
-0.070143208 0.06583637 1.5176922
-0.066263005 0.065718137 1.5180578
-0.062558427 0.065704964 1.5177892
-0.058121335 0.065176398 1.5164655
-0.054164644 0.06511467 1.5163994
-0.05098179 0.064851537 1.5162476
-0.12527829 0.069726594 1.51919
-0.12268412 0.070020698 1.5183219
-0.11779604 0.070302956 1.5168526
-0.11525737 0.070526712 1.5165904
-0.085981429 0.068336979 1.5163198
-0.081724383 0.069886118 1.5172215
-0.078156665 0.068991594 1.5179958
-0.073676728 0.070146017 1.5166633
-0.07024534 0.069702081 1.5170002
-0.066290975 0.069594458 1.5168493
-0.062288698 0.068999402 1.5163887
0.0022078031 0.071488664 1.5196731
-0.12180772 0.074412122 1.5192313
-0.11745837 0.072250172 1.516487
-0.11517045 0.072036363 1.5160623
-0.082551181 0.073181808 1.5168443
-0.077467896 0.073996767 1.5162244
-0.074325152 0.073605575 1.5164194
-0.070336789 0.072934024 1.5163041
-0.067186587 0.072391152 1.5160997
0.0029782171 0.073726304 1.5186787
0.0058396254 0.074810401 1.5177245
0.0099189011 0.074742176 1.5174656
0.013836868 0.075207077 1.5178095
-0.07657896 0.07603772 1.51608
0.0036935594 0.07721322 1.5189006
0.0048883948 0.07823921 1.5175654
0.011698575 0.077806279 1.5161101
0.014948068 0.076066419 1.5170856
0.0063810819 0.081896812 1.5180105
0.085076444 -0.013220944 1.5227845
0.088752896 -0.012999189 1.5231117
0.075980403 -0.0085104275 1.5237341
0.078290105 -0.0085052866 1.5227776
0.082609184 -0.0093963444 1.521688
0.086402051 -0.01103983 1.5212752
0.088358112 -0.01186878 1.5221143
0.074721187 -0.0059867925 1.5229982
0.077978089 -0.007227798 1.5232641
0.081274427 -0.0078274831 1.5218898
-0.00014321189 -0.0027744723 1.5202892
0.0020008238 -0.0013052513 1.5215415
0.0052406541 -0.00042247528 1.5226668
0.074802674 -0.0019928298 1.5214958
0.076525025 -0.0037868051 1.5211679
-0.012241513 0.0032759821 1.5206479
-0.010633119 0.002494965 1.5228734
0.002789621 0.0018653035 1.5216335
0.006012009 0.0022714103 1.5232204
0.041340824 0.0030800046 1.5235443
0.066544227 0.0034510791 1.5237283
0.07098671 0.0027938809 1.5226524
0.073648222 0.0010455479 1.5224019
-0.01224053 0.0046202801 1.5205255
-0.0097092884 0.0058442838 1.5220938
-0.0070567518 0.0066857939 1.5206703
0.0023874359 0.0059212931 1.5217276
0.0056437338 0.005904709 1.522441
0.035227176 0.0064587668 1.5225929
0.037714496 0.0072110584 1.5233737
0.041098252 0.0060476316 1.5218576
0.04539958 0.0063100816 1.522617
0.063449137 0.007655004 1.5222327
0.066269085 0.0053374334 1.5225656
0.068757109 0.0045157624 1.522988
-0.0091942986 0.0099775633 1.5211748
-0.0058864225 0.011016752 1.5218412
-0.0016069787 0.010973128 1.5212759
0.001308927 0.0097811157 1.5224289
0.0054669939 0.0085570654 1.5231971
0.011808905 0.010860105 1.5234877
0.013992125 0.011361049 1.5229174
0.017981004 0.011110921 1.5224755
0.021366626 0.010541595 1.5234159
0.034656461 0.0099483524 1.5213629
0.037819251 0.0099600283 1.521989
0.040203087 0.0086583784 1.5212688
0.045623612 0.01079817 1.522603
0.055761527 0.01035724 1.5236853
0.058471225 0.010471857 1.5224797
0.061694682 0.010643984 1.5212928
0.064707205 0.011005812 1.5201449
-0.0062034279 0.01237468 1.5233607
-0.0012092117 0.012932685 1.5229579
0.00086659275 0.012713005 1.5235441
0.0065893638 0.015741659 1.5232874
0.011297838 0.015735732 1.5227102
0.014424615 0.014115964 1.5223855
0.017646652 0.01349665 1.5222931
0.021852946 0.013592548 1.5220649
0.025382297 0.013795324 1.5222306
0.029435229 0.014372079 1.52086
0.03546888 0.012348884 1.5201273
0.037830383 0.012688145 1.5205033
0.055056889 0.015513969 1.5228218
0.058489341 0.013776775 1.5230716
0.061493006 0.012615252 1.5217173
0.094000705 0.01540337 1.522602
0.09726014 0.014169046 1.5226389
-0.0083903298 0.019275216 1.5230958
-0.007551698 0.018777302 1.5236712
0.0038975484 0.019789508 1.5238014
0.0068491101 0.018398304 1.5225635
0.010314033 0.017649317 1.5205166
0.014060338 0.017820168 1.5205616
0.018669063 0.017052528 1.5200461
0.022384152 0.017655512 1.5201774
0.024607206 0.017614989 1.5202352
0.034122501 0.01638058 1.5200146
0.047409143 0.017526224 1.5222869
0.049620043 0.018483436 1.5212816
0.052283637 0.019748615 1.5204924
0.087683633 0.019437097 1.5220988
0.089915097 0.018663555 1.5219746
0.09296912 0.016924916 1.5231721
-0.02650339 0.023443311 1.5235049
-0.02061539 0.021672431 1.5235132
-0.018135037 0.022923935 1.5223551
-0.014178326 0.023714948 1.5224432
-0.0094325319 0.022407033 1.5220656
-0.006058115 0.022521945 1.5230917
-0.0030051104 0.023066696 1.5233194
0.0026481533 0.022293193 1.5226945
0.006153516 0.021960817 1.5214977
0.0094018085 0.021543512 1.5207945
0.046225958 0.020753406 1.5202529
0.049611028 0.020427603 1.5210006
0.083185576 0.023044685 1.5214173
0.085731246 0.021726295 1.522355
0.08989954 0.022038454 1.523492
-0.042890225 0.027298644 1.5228449
-0.025081033 0.025829941 1.5223496
-0.022386676 0.026076291 1.5220406
-0.017746679 0.026174905 1.5222511
-0.014689549 0.026906531 1.5209781
-0.008967598 0.024882253 1.5210631
-0.0058053075 0.025206989 1.5211761
-0.0020862417 0.025369611 1.521739
0.0019292518 0.024911173 1.5211234
0.0045606908 0.024450161 1.5203345
0.038855273 0.02782766 1.5211307
0.042328972 0.026913077 1.5208534
0.044214949 0.027815178 1.5204198
0.079242498 0.026737601 1.5206293
0.081945293 0.026219357 1.5222483
0.08636038 0.027177878 1.5220331
0.088964827 0.02576606 1.5231086
-0.040928494 0.029607711 1.5218589
-0.038333103 0.031216471 1.5223557
-0.03414828 0.031572003 1.5232915
-0.029968049 0.03109481 1.5230411
-0.025975658 0.030308072 1.5225605
-0.022356441 0.030325117 1.5211437
-0.016272366 0.028485417 1.5204031
-0.014256386 0.028485566 1.5204158
0.038112819 0.029886147 1.5212901
0.04195185 0.028833615 1.52256
0.045867894 0.029938184 1.5219741
0.049640015 0.031319011 1.5218248
0.053669363 0.031875927 1.5216258
0.079243265 0.029889498 1.5207629
0.082070939 0.029925423 1.5221323
0.086039223 0.030240117 1.5219264
0.089291997 0.030716017 1.5232663
0.093256056 0.031674288 1.5236856
0.10300758 0.031726677 1.5220354
0.10625483 0.031048426 1.5221945
0.11002177 0.030898424 1.5233234
0.11352158 0.030974451 1.5233603
0.11836898 0.031571038 1.5224184
0.12178663 0.031633954 1.5221475
-0.03848191 0.034060068 1.5215486
-0.033911224 0.033320546 1.5213885
-0.030099383 0.033343408 1.5211537
-0.026179638 0.033063687 1.5206741
-0.023326397 0.032515481 1.5202016
0.034944676 0.035080779 1.5206387
0.03686966 0.033868104 1.5224018
0.042524371 0.034784414 1.521371
0.045940034 0.034498949 1.5215148
0.049272388 0.034213386 1.5208706
0.053337142 0.033224206 1.5217371
0.064508647 0.035955667 1.5233204
0.079625882 0.032750651 1.5203525
0.082553774 0.032532293 1.5205903
0.086752079 0.033308584 1.5208914
0.09021154 0.033900559 1.5215579
0.093906015 0.034159776 1.5221591
0.097388089 0.033751573 1.5227334
0.10196743 0.034143254 1.5209545
0.10587277 0.034253091 1.5220433
0.10989682 0.034248084 1.5217797
0.11364777 0.034500185 1.522738
0.11828209 0.033996191 1.5219544
0.12200931 0.034213126 1.522155
0.12606946 0.034252845 1.5217453
0.129853 0.0349641 1.5226259
0.13296042 0.035979763 1.523439
0.14270948 0.035588291 1.5229989
-0.037177712 0.036623158 1.5232215
0.031440575 0.039911218 1.5202135
0.034029234 0.038188837 1.5220774
0.036996309 0.037290204 1.5229869
0.042870227 0.03689095 1.5203692
0.045885772 0.037773322 1.5212936
0.048832275 0.037042107 1.5206231
0.063723087 0.037909966 1.5206416
0.064498834 0.038419869 1.5230764
0.093646698 0.036567219 1.5204235
0.1025788 0.037398621 1.5204539
0.10568635 0.037575155 1.5208223
0.10922987 0.037371114 1.5205815
0.11426926 0.037318394 1.5208491
0.11824664 0.037369307 1.5219085
0.1215015 0.037097231 1.5217006
0.12602587 0.037699446 1.5212063
0.12973326 0.037336335 1.5207722
0.13430172 0.037803445 1.5215908
0.1382481 0.038605604 1.5214325
0.14201559 0.037990455 1.5227851
0.063709557 0.040927596 1.5203029
0.10811701 0.043971196 1.5203884
0.12521492 0.040026635 1.5236233
0.13570367 0.040612236 1.5201136
0.13863905 0.041944221 1.520587
0.14222872 0.041819081 1.521951
0.13954231 0.044881742 1.5203152
0.14123604 0.045214567 1.5216186
-0.12449909 0.049467117 1.5235586
-0.12175686 0.050008103 1.5227002
-0.11832152 0.050395325 1.5211426
-0.11419836 0.050394777 1.5211987
-0.016775412 0.050257679 1.5223376
-0.01560384 0.051017098 1.5206065
-0.12513959 0.055520117 1.5230918
-0.12172467 0.055499565 1.5225872
-0.11703849 0.054295018 1.5235419
-0.11522162 0.053614572 1.5223293
-0.064670183 0.055383839 1.5201752
-0.062049918 0.055115975 1.5202309
-0.059096657 0.055091821 1.5201213
-0.016308529 0.052129474 1.5236326
-0.014718892 0.053904101 1.5217255
-0.12446637 0.056194469 1.5231073
-0.12114437 0.057327796 1.5225466
-0.11817063 0.057974741 1.52179
-0.11531196 0.059196584 1.5207068
-0.069318071 0.058431126 1.520252
-0.065920763 0.057306375 1.5202812
-0.06218268 0.056889899 1.5202707
-0.059626713 0.056390278 1.5201569
-0.013023166 0.057552803 1.5219342
-0.011571781 0.058754791 1.520686
-0.13157523 0.063624844 1.5232974
-0.12119989 0.062319428 1.5231166
-0.11794141 0.061858807 1.5215802
-0.11552753 0.06132235 1.5203749
-0.0705906 0.060229309 1.52019
-0.011234229 0.060091361 1.520467
-0.13246369 0.06699089 1.5231291
-0.13139085 0.065218605 1.522712
-0.1247847 0.066718169 1.5234685
-0.12210006 0.065880254 1.5223849
-0.11853021 0.065003954 1.5209117
-0.00014393422 0.067602143 1.5229976
0.015348406 0.066957138 1.523641
0.016245829 0.067403547 1.523572
-0.13348074 0.070589349 1.5231413
-0.12966862 0.070246503 1.5225601
-0.12595811 0.070066169 1.5218759
-0.12272388 0.069341727 1.5212569
-0.005533501 0.071683876 1.5238187
-0.00014391472 0.069265813 1.5225402
0.0017064065 0.070372902 1.521723
0.0064366241 0.071072936 1.5210553
0.010464218 0.07051608 1.5224801
0.01404662 0.070041642 1.5234888
0.017734172 0.069463365 1.5231602
-0.12933627 0.074360199 1.5233237
-0.12598379 0.073941596 1.5216755
-0.12325259 0.073353365 1.5204612
-0.0055300696 0.07426782 1.5228859
0.0015377306 0.073538169 1.5217309
0.006491241 0.073260352 1.5206448
0.010286891 0.073286586 1.5221014
0.014083399 0.073548459 1.5229737
0.016441979 0.073101044 1.5234876
0.0028827689 0.077966586 1.5214322
0.0038925782 0.08100865 1.5216537
0.085443035 -0.017311869 1.5271745
0.055254217 -0.014301696 1.5256056
0.058305562 -0.014165958 1.5252202
0.062257603 -0.014258254 1.5259948
0.065994672 -0.014264202 1.5265775
0.079552405 -0.012586096 1.5275996
0.0821646 -0.013039806 1.525914
0.0862372 -0.014415697 1.5258263
0.088799939 -0.014752365 1.5256931
0.055913202 -0.0085318042 1.5278242
0.058735423 -0.010032942 1.5268879
0.062249541 -0.01020791 1.5258121
0.06599655 -0.010213504 1.5266272
0.068081737 -0.0092092045 1.5279751
0.075500317 -0.0085322876 1.527658
0.078416966 -0.0099713868 1.526173
0.082055986 -0.010434992 1.527035
0.084149472 -0.011892121 1.5251769
0.055895597 -0.0078537138 1.5273442
0.058471091 -0.0071774656 1.5271701
0.062343739 -0.0067086071 1.526853
0.065771453 -0.0066964654 1.5273836
0.072755128 -0.0048134075 1.526777
0.077842057 -0.0057781176 1.5244761
0.08207874 -0.007840055 1.524323
0.002552652 -0.0024460508 1.5250814
0.0045734779 -0.00042301393 1.5246122
0.034961682 -0.00042396341 1.5273319
0.041033927 -0.0012924239 1.5271634
0.066048972 -0.0004246227 1.5278596
0.071453303 -0.00042473446 1.5278243
0.07317698 -0.0011745295 1.5261968
-0.010417204 0.0026096909 1.524171
0.0059241639 0.0022421381 1.5252273
0.035160735 0.0022753424 1.5262072
0.038205557 0.0026734897 1.5268123
0.041579627 0.0015522083 1.5259432
0.066685811 0.0017442962 1.5258638
0.069850586 0.0019375745 1.5260355
0.072678559 0.00025048017 1.5251807
0.10657088 0.0036282344 1.5272945
0.0036765386 0.0068825558 1.5252179
0.0064731282 0.0058099269 1.5259944
0.011663717 0.0073381937 1.5265253
0.01409905 0.0067179399 1.5268151
0.017738963 0.0066645411 1.5267643
0.021787222 0.0069263605 1.5266699
0.025242098 0.0070541622 1.5268337
0.030242465 0.0075128293 1.5276825
0.033694007 0.0065202327 1.5267326
0.038011998 0.0055712257 1.5253074
0.040722582 0.0051080431 1.5256282
0.046546888 0.0074054934 1.5263847
0.062778987 0.0070779589 1.5268495
0.065584101 0.0053607337 1.5260417
0.10653188 0.0047529009 1.526729
-0.0092386231 0.01137083 1.5242243
-0.0044102543 0.011258199 1.5241871
0.0032281661 0.010289785 1.5256106
0.0059283348 0.010141171 1.5263939
0.011318984 0.0094490098 1.5255214
0.014100956 0.0093629314 1.526575
0.017542269 0.0096377581 1.5272653
0.022137104 0.0095031466 1.5249653
0.025820028 0.010032374 1.5257032
0.029836573 0.009990707 1.5266539
0.032901384 0.0093322787 1.5257204
0.046586815 0.0098408489 1.5257957
0.051862825 0.0097102216 1.5279188
0.054328378 0.010552465 1.5262737
0.057561379 0.010079623 1.5254513
0.060586028 0.0083509311 1.5264097
0.1037713 0.011387791 1.5258904
0.10517664 0.010515517 1.5266781
-0.0084616812 0.012619797 1.5258341
-0.0056336918 0.0142696 1.5253136
-0.0021385232 0.014640587 1.5254954
0.0023849329 0.014247089 1.5254952
0.0061805286 0.013978528 1.526176
0.010261045 0.014240946 1.5263114
0.013492608 0.01415147 1.5249945
0.016024824 0.014403034 1.5241683
0.021413896 0.012718007 1.5241292
0.026475135 0.012722067 1.5246091
0.029316928 0.013014296 1.5254446
0.046925656 0.013896955 1.5260118
0.050717756 0.015672415 1.5273393
0.054445822 0.014358257 1.5264602
0.057333175 0.01312133 1.5251708
0.094397724 0.015318722 1.5253772
0.098293535 0.014896605 1.5266958
0.10072222 0.013763563 1.5274467
-0.0304433 0.019416278 1.5275034
-0.025396103 0.017677102 1.5275158
-0.022373756 0.0189259 1.5265818
-0.019054396 0.019843789 1.5279522
-0.012805342 0.019671988 1.5277418
-0.010113119 0.019105205 1.5270947
-0.0056635048 0.018038733 1.5253339
-0.0018303019 0.018135406 1.526351
0.0021680493 0.018077064 1.5255274
0.0051982929 0.017580036 1.5254796
0.086863197 0.019816529 1.5254263
0.090860993 0.019805709 1.5245486
0.094181158 0.018390434 1.5259637
0.097666718 0.018089332 1.5275838
0.10119092 0.019848293 1.5277063
-0.045241356 0.022536797 1.5272131
-0.040988617 0.023888117 1.5272584
-0.038088035 0.023349436 1.5273812
-0.034280654 0.021747388 1.5278672
-0.02964857 0.02122937 1.5269144
-0.026129564 0.022196377 1.5261204
-0.022161325 0.022395996 1.525923
-0.017843118 0.021290813 1.5263119
-0.013912654 0.021794694 1.5259491
-0.011136932 0.021435026 1.5258374
-0.0051964424 0.020806108 1.5242358
-0.001492238 0.021914434 1.5259829
0.00090448838 0.021671694 1.5245453
0.086583413 0.02318087 1.5248097
0.089873359 0.022218514 1.5255908
0.093944609 0.022140438 1.5260977
0.097540915 0.021431146 1.5272243
0.10050846 0.020522706 1.5276103
-0.044001736 0.02454951 1.5263714
-0.041898847 0.025749868 1.5270406
-0.038339775 0.026302464 1.5274078
-0.034324795 0.027192295 1.5272137
-0.030057209 0.02672396 1.5264359
-0.026972231 0.026519643 1.5253701
-0.021458155 0.024774836 1.5247682
-0.019462051 0.024968483 1.5245911
-0.00048106539 0.024540912 1.5259775
0.0012040213 0.025191622 1.5245231
0.083415218 0.026539532 1.5240662
0.085428737 0.025645904 1.5249431
0.090503089 0.026552796 1.5247508
0.094014458 0.026245037 1.5264335
0.097895145 0.026851134 1.5272564
0.10206065 0.027030565 1.5273602
0.10619065 0.026647568 1.5270247
0.10980974 0.027139403 1.5271581
0.11235055 0.02796068 1.527684
0.13060731 0.027963182 1.5275329
0.13883236 0.027039655 1.5277297
0.14092316 0.027796002 1.527452
-0.040619202 0.02859303 1.5260468
-0.038035084 0.029567452 1.5257111
-0.034189899 0.029586928 1.5251487
-0.030304421 0.029157083 1.5247217
-0.027429966 0.028556997 1.5241877
0.039608572 0.031254407 1.5242172
0.041930106 0.030350853 1.5256895
0.045540106 0.031535164 1.5259063
0.04940122 0.031943284 1.5248706
0.090697989 0.029399546 1.5243963
0.094091929 0.029857306 1.5249444
0.097995996 0.030274825 1.5253046
0.10192641 0.030094076 1.5257112
0.10571308 0.029353404 1.5257736
0.11015198 0.02911767 1.5256922
0.11453421 0.029861946 1.5258374
0.11769171 0.030287277 1.5256609
0.12173559 0.030485488 1.5261195
0.12591168 0.031356398 1.5263356
0.13000864 0.030641876 1.5262975
0.13305251 0.030308973 1.5274839
0.13976838 0.028646765 1.5277777
0.14222249 0.029983165 1.5269259
-0.039949957 0.034670886 1.5262277
0.038737997 0.034532219 1.524834
0.041250058 0.033520665 1.5251006
0.045966905 0.032619771 1.5249909
0.050113976 0.032642584 1.5260315
0.053489003 0.032643836 1.5260674
0.098254196 0.03261061 1.5240651
0.11513349 0.033293106 1.5242038
0.11782806 0.033742066 1.5241305
0.13040847 0.033250634 1.5248269
0.13399889 0.033809345 1.5260898
0.13797796 0.033853948 1.5270158
0.14184508 0.033689417 1.5269182
-0.07368727 0.039136015 1.5275275
-0.070709124 0.039428718 1.5272604
-0.03778955 0.038396843 1.5267696
0.037738211 0.036661647 1.5248468
0.065284111 0.038373366 1.5256863
0.11894185 0.038045622 1.5254059
0.12031344 0.038052756 1.5256703
0.12526682 0.039368741 1.5242583
0.13545585 0.036016028 1.5249321
0.13774081 0.036503084 1.5251057
0.14026715 0.0360387 1.5258055
-0.07315702 0.040526297 1.5272254
-0.069764085 0.041463584 1.5267017
-0.066010408 0.041905876 1.5258092
-0.061948217 0.042279724 1.5252037
-0.05778553 0.042399872 1.5248985
-0.053732749 0.042393878 1.5247159
-0.049696565 0.04240118 1.5250058
-0.046003312 0.042077284 1.5255207
-0.042230826 0.041855738 1.5261394
-0.038996227 0.041179642 1.5270193
0.12573968 0.041399792 1.5245218
-0.065276645 0.044537287 1.527452
-0.061991371 0.044560436 1.5268877
-0.05772892 0.044753745 1.5260105
-0.053778056 0.044791877 1.5259879
-0.049911372 0.044718757 1.526401
-0.045857325 0.044444866 1.5267774
-0.042684928 0.044156853 1.5274563
0.06359145 0.047477733 1.5254955
0.14217617 0.044780694 1.5244714
-0.13017096 0.04991119 1.5267297
-0.12615135 0.050262906 1.5258448
-0.12235957 0.051357273 1.5263252
-0.11952078 0.051523101 1.5246181
-0.11417773 0.050197098 1.5254251
-0.043360665 0.048210036 1.527438
-0.017793322 0.050629541 1.5258132
0.064004607 0.048885096 1.5272964
-0.13012634 0.055635098 1.5261604
-0.12610082 0.05497127 1.5265706
-0.12198129 0.053662606 1.5265337
-0.11870376 0.053514421 1.5248232
-0.016711347 0.053568516 1.5262222
-0.015649194 0.054874331 1.5249945
-0.13370173 0.056781571 1.527401
-0.13015895 0.056662872 1.5265414
-0.12618059 0.058111172 1.5265383
-0.12248036 0.058450293 1.5248274
-0.01484015 0.05676081 1.5249449
-0.13255715 0.062759206 1.52684
-0.13002114 0.06261719 1.5268635
-0.12606178 0.062045157 1.5260282
-0.1228957 0.061280571 1.5245101
-0.089992322 0.063546754 1.5274906
-0.0021707749 0.063766815 1.527964
0.020451721 0.063748665 1.5275061
-0.13304465 0.067731768 1.5246227
-0.12983599 0.066204086 1.5256159
-0.1265033 0.065683462 1.5248657
-0.08883936 0.064653359 1.5270308
-0.087908737 0.065080881 1.5265146
-0.0013058777 0.065917067 1.5255942
0.0029613597 0.067496017 1.5266979
0.0052579935 0.067802116 1.5275022
0.015136209 0.066112153 1.524887
0.01782394 0.066261746 1.5256363
0.021344718 0.06601508 1.5269547
0.024172004 0.064440586 1.5278788
-0.14234646 0.071484484 1.5276953
-0.13737056 0.071314648 1.5260938
-0.13408501 0.070024505 1.5252854
-0.13046776 0.069648474 1.5247637
-0.12726447 0.068382218 1.5241801
-0.0048690056 0.071144328 1.5267088
-0.0010425724 0.068556145 1.5242338
0.0034536386 0.069460623 1.5260016
0.0060570934 0.069382697 1.526177
0.0094389273 0.069245815 1.5265534
0.012672564 0.068404637 1.5258604
0.016902991 0.070281096 1.5240896
0.020087365 0.06838613 1.5254325
-0.13824497 0.074292228 1.5265402
-0.13414782 0.074192651 1.5255711
-0.1311134 0.073569141 1.5243715
-0.004328561 0.074375696 1.5264857
-0.0035216152 0.075585589 1.5277287
0.00097986206 0.074924141 1.5257365
0.001206423 0.076604486 1.5278291
0.068258315 -0.020072879 1.5319101
0.08534956 -0.020283511 1.5305386
0.066849083 -0.018405216 1.5293808
0.069027022 -0.0174197 1.5309292
0.072302483 -0.01600376 1.5314718
0.086567409 -0.018017525 1.5297277
0.089026392 -0.018300293 1.5297242
0.093132585 -0.019357746 1.5286003
0.054988667 -0.013620867 1.5302863
0.056306858 -0.012598086 1.5293396
0.069673739 -0.014006982 1.5300554
0.072615005 -0.013583795 1.5301301
0.078601763 -0.012596106 1.5288289
0.082183249 -0.013963815 1.5304303
0.084385753 -0.014969938 1.5294521
0.054735083 -0.010491363 1.5302989
0.056997228 -0.010233501 1.529727
0.069922023 -0.010290173 1.5290875
0.07379505 -0.010186102 1.5300804
0.077755988 -0.010746814 1.5292648
0.080608837 -0.010226908 1.5284156
0.11637121 -0.0085589709 1.5316683
0.033703879 -0.0048268987 1.531534
0.03954814 -0.0059525571 1.5306264
0.040906981 -0.0049376665 1.5308223
0.058655225 -0.0054951054 1.5288579
0.061418761 -0.0047510988 1.5286564
0.066192508 -0.0049100947 1.5283328
0.069828153 -0.006173349 1.5292166
0.072803915 -0.0067232256 1.5299857
0.11538896 -0.0058414829 1.5298887
0.11638258 -0.0072043687 1.5318199
0.0070746555 -0.00087626046 1.5311726
0.019492259 -0.00042510743 1.5319499
0.034714755 -0.00203848 1.5301874
0.038005821 -0.0018025486 1.5308461
0.042276021 -0.0022033711 1.5295641
0.044708546 -0.001585492 1.530784
0.05906558 -0.0038098269 1.5307329
0.06219044 -0.003177339 1.530457
0.065956935 -0.0023453031 1.529773
0.069800027 -0.0021647965 1.5296727
0.072458722 -0.0024546687 1.5294323
0.11474147 -0.0022318645 1.5302929
0.0077396757 0.0010402062 1.5288426
0.0097545572 0.0025670193 1.5305649
0.013566544 0.0021148117 1.5318563
0.017235003 0.00059092097 1.531939
0.021995381 0.0025245512 1.5311155
0.025989885 0.0030437959 1.5307803
0.030000918 0.0027134188 1.5310196
0.033406328 0.0023180034 1.5309651
0.038119636 0.0013499232 1.5287406
0.041081849 0.0011978768 1.528942
0.044901449 0.0020725525 1.5297561
0.062908664 0.0031537532 1.5313097
0.065087207 0.002507339 1.5304093
0.069018908 0.00070183218 1.5287888
0.10715584 0.0022824099 1.53082
0.10950872 0.0025071104 1.5305557
0.11310804 0.0013786671 1.5303491
0.0079646604 0.0076871831 1.5288005
0.0097873481 0.0059093912 1.5305585
0.013785119 0.0053928508 1.5298765
0.017771719 0.0049857683 1.5295244
0.022064004 0.0052258424 1.5291628
0.026215633 0.0053958031 1.5291342
0.029837435 0.0055638817 1.5291742
0.03328608 0.0050882343 1.5290917
0.047198631 0.0062053199 1.5300062
0.048756037 0.0068529341 1.5311259
0.058549389 0.0070829573 1.5309249
0.061576862 0.005714816 1.5297475
0.064503364 0.0047576576 1.5285965
0.10734412 0.0070127998 1.5286762
0.10851749 0.0060067438 1.5309057
-0.012328525 0.01176332 1.5314493
-0.010622411 0.011522216 1.5294132
0.0078686774 0.010294897 1.5288948
0.0095162243 0.010205079 1.529927
0.01336435 0.0093727577 1.528096
0.017541254 0.0089128921 1.5282251
0.047845889 0.010055485 1.5290827
0.050065815 0.010041041 1.5305213
0.053883858 0.010315697 1.5301479
0.057504699 0.0085381065 1.529747
0.10643961 0.010101105 1.5297279
0.10821094 0.008718932 1.5313643
-0.032862183 0.015374848 1.5314083
-0.030951288 0.015830044 1.5317732
-0.025951991 0.014877209 1.5302842
-0.021879802 0.015713001 1.5298357
-0.017830992 0.015025409 1.5297588
-0.013859194 0.014309724 1.5299425
-0.010084608 0.014255479 1.5302337
-0.0075790151 0.015126701 1.5291933
0.0079640336 0.012417841 1.5286769
0.0097650765 0.012642104 1.5285574
0.047838159 0.013772018 1.528831
0.050094128 0.013902053 1.5298992
0.053420082 0.013153804 1.5289854
0.098384023 0.014683968 1.5296599
0.10226148 0.014305055 1.5302432
0.10448559 0.013122319 1.5314064
-0.046537839 0.018041359 1.5305299
-0.032620836 0.017849838 1.5306673
-0.030209888 0.0179168 1.5298301
-0.026153956 0.01854228 1.5299066
-0.021800905 0.017372476 1.5284653
-0.01802513 0.018119369 1.5290629
-0.014149722 0.017980641 1.5293508
-0.010139262 0.017259808 1.5290388
0.095375754 0.019631315 1.5284256
0.098163217 0.018332003 1.5293804
0.10167889 0.018354258 1.5299764
0.10605399 0.018898033 1.5300595
0.10984664 0.018870668 1.5305201
0.11395466 0.018878387 1.531085
0.11797608 0.01892752 1.531436
0.12191772 0.019358622 1.5314599
0.12583664 0.01972957 1.5312668
0.13837101 0.019773286 1.5318255
-0.045457616 0.020886445 1.5299666
-0.041746821 0.023597324 1.5303049
-0.037610907 0.022035358 1.5299367
-0.034024768 0.022749329 1.5285856
-0.030555373 0.02283724 1.5288825
-0.025589919 0.020637577 1.5283457
-0.023568286 0.020979742 1.5286661
0.0958037 0.023907524 1.5280488
0.098736547 0.022923511 1.5288185
0.10202813 0.022297082 1.5294126
0.10571291 0.022240659 1.5295269
0.10984904 0.022256125 1.53054
0.11385157 0.022379683 1.5316844
0.11774059 0.023745079 1.5318123
0.12293475 0.020582212 1.5317329
0.12647058 0.021328516 1.5311832
0.13018546 0.022369614 1.5308582
0.13389741 0.023309568 1.5298572
0.13834664 0.02210618 1.531423
0.14155637 0.022585953 1.5311339
0.14491384 0.023737565 1.530879
-0.041698247 0.026273673 1.5285144
-0.036617737 0.024575187 1.5280097
-0.034161236 0.025216226 1.5283326
-0.030547354 0.024807332 1.5284655
0.098645754 0.025097007 1.5284179
0.10247141 0.025079574 1.5287806
0.10569775 0.025270553 1.5285996
0.10983615 0.025387177 1.5287844
0.11391612 0.026201941 1.529475
0.11794322 0.026312068 1.5300323
0.12200125 0.026633115 1.5304047
0.12626575 0.026939539 1.5302821
0.13025753 0.02634801 1.5298759
0.13406166 0.026152221 1.5293909
0.13788505 0.026099395 1.5291256
0.14211795 0.026062084 1.5304033
0.14572066 0.026236171 1.5293056
0.042457156 0.031367261 1.5297083
0.06635458 0.03091836 1.5296507
0.11509806 0.028647667 1.5282345
0.11809019 0.028879182 1.5285144
0.12216303 0.029124649 1.5287677
0.12606314 0.029408854 1.5287883
0.12954824 0.02906475 1.5286109
0.13511288 0.029458568 1.5287255
0.13804939 0.029994495 1.5287336
0.14187188 0.030014521 1.5285442
0.14582996 0.029115388 1.5286101
-0.084130742 0.035143837 1.5317488
-0.082416363 0.035473604 1.5313774
0.042571004 0.032157343 1.529754
0.066904239 0.03480345 1.5318989
0.13844121 0.032033179 1.5280628
-0.084134497 0.036161754 1.531812
-0.081530549 0.037340757 1.5309242
-0.078221098 0.038156953 1.5293273
-0.075008921 0.038270243 1.5295341
-0.070520639 0.038366441 1.5305085
-0.067520246 0.039538518 1.5315468
-0.0405984 0.038311642 1.5308642
-0.039101224 0.037732743 1.5299721
-0.035731696 0.039230332 1.5285708
0.066323511 0.037665725 1.5289078
-0.080075763 0.040229816 1.5319428
-0.077498265 0.041367237 1.5308557
-0.07442046 0.042175334 1.5297166
-0.071119629 0.043139763 1.5287987
-0.065059274 0.04015987 1.5294327
-0.062023431 0.040614922 1.5296205
-0.058003593 0.040867802 1.530672
-0.053949848 0.040872563 1.530883
-0.049850821 0.040840983 1.5297303
-0.044821229 0.040202916 1.5312322
-0.041691191 0.041811854 1.5281756
-0.037395995 0.042436931 1.5290614
-0.034698382 0.041801449 1.530291
0.066014364 0.041888412 1.5308534
0.068244517 0.040214907 1.5315392
0.1266025 0.042174615 1.5281392
-0.073232003 0.045379106 1.5316184
-0.070084572 0.045785494 1.5303371
-0.06629838 0.046338771 1.5290741
-0.061983217 0.046638768 1.5297021
