# .PCD v0.7 - Point Cloud Data file format
VERSION 0.7
FIELDS x y z
SIZE 4 4 4
TYPE F F F
COUNT 1 1 1
WIDTH 1242
HEIGHT 1
VIEWPOINT 0 0 0 1 0 0 0
POINTS 1242
DATA ascii
-0.0069111772 0.0023363712 0.0059222411
-0.045253489 0.0039513065 0.0059839068
0.0074748071 0.0045239027 0.0059276046
-0.00035723599 0.0072857267 0.0059710406
-0.0014858819 0.0086223138 0.0059672375
0.0013105269 0.0086433329 0.0059848442
0.04437919 0.0097954022 0.0059093889
0.044421796 0.0097031761 0.0059041344
-0.044169258 0.010713204 0.0059570619
-0.044115633 0.010974108 0.0059789983
0.029387061 0.017080301 0.0059349877
0.041920204 0.017550686 0.0059731575
0.029327348 0.017928934 0.0059972918
0.032206297 0.032030746 0.0059909429
0.021894453 0.03980381 0.0059970869
-0.018018296 0.041744366 0.0059845983
-0.0099350745 0.044326734 0.0059269522
-0.010060695 -0.034568004 0.0060495823
0.031352729 -0.032935981 0.0060668569
0.032359648 -0.031956092 0.0060799513
-0.037181713 -0.026136085 0.0060892864
-0.025854701 -0.019998938 0.0060539246
0.040954579 -0.019651834 0.0060291258
-0.038078025 -0.017466817 0.0060982979
-0.042319033 -0.016577274 0.0060769469
-0.043375559 -0.0135721 0.0060869162
-0.043643568 -0.012658391 0.0060237292
-0.043940753 -0.011588816 0.0060889334
-0.040683784 -0.010637429 0.0060704276
0.044615883 -0.0087289019 0.0060635475
0.0066222232 -0.0057071457 0.0060593463
0.0059482735 -0.0042239847 0.0060735787
0.045464985 0.00045468184 0.0060829618
0.008496888 0.0020330844 0.0060715214
-0.0068028634 0.005481218 0.0060013696
-0.045022562 0.0062565212 0.0060012061
-0.044080794 0.011063784 0.0060144584
-0.042502604 0.016051445 0.0060324958
-0.042247508 0.016742624 0.0060936436
-0.040970087 0.019692061 0.0060468921
-0.033806339 0.030342212 0.0060611991
0.028556876 0.035326026 0.0060263835
0.02740127 0.036283627 0.0060071899
-0.025875237 0.037378743 0.0060302825
-0.022994567 0.039212115 0.0060630501
0.005337744 0.039867148 0.0060418956
-0.013411217 0.043435737 0.0060666087
-0.0021226313 0.045426551 0.0060219099
-0.00087309052 -0.045413636 0.0061326283
-0.013326181 -0.043450247 0.0061922339
0.013402956 -0.043403216 0.0061994451
0.014002213 -0.043209724 0.0061535607
-0.015560241 -0.04268134 0.0061463006
0.024408583 -0.03832794 0.0061465483
-0.02698865 -0.036547162 0.0061772801
-0.0035624879 -0.031658869 0.006132884
-0.0012417494 -0.028933499 0.0061366521
-0.0024545109 -0.028860819 0.006183709
-0.035957418 -0.027756449 0.0061772671
0.039770354 -0.021991111 0.0061147842
-0.041947767 -0.017448295 0.0061889822
-0.042050328 -0.017215701 0.0061560776
0.04208342 -0.017219272 0.006163951
0.04317084 -0.014230806 0.0061482945
-0.044316664 -0.010133337 0.0061018681
0.04484316 -0.0073663425 0.0061283903
0.045234129 -0.0045665703 0.0061791358
-0.0086478461 0.0012722481 0.0061186464
-0.0071247341 0.001587607 0.0061879284
0.0070840139 0.0016634725 0.0061213165
0.0012651646 0.003945333 0.0061009419
0.0049327388 0.0053764638 0.0061948332
-0.043254349 0.013864879 0.0061454107
-0.041535415 0.018452303 0.0061429818
-0.039543465 0.022387641 0.0061145951
0.037976332 0.024923332 0.0061018816
-0.036316901 0.027361339 0.0061084614
-0.035577342 0.028253824 0.0061912993
-0.034445837 0.029619291 0.006148228
0.032938059 0.031332143 0.0061568585
-0.0018087247 0.03374593 0.0061166622
-0.028871037 0.035115108 0.0061702542
-0.026960045 0.036595728 0.00612493
-0.010935832 0.044092864 0.006115309
0.0090268143 0.044576004 0.0061246883
0.0084568355 0.044684388 0.0061054612
-0.0046239342 0.045206368 0.0061867069
-0.0030507203 -0.045343362 0.006256002
-0.0056495178 -0.04506911 0.0062213093
-0.0068714558 -0.044959012 0.0062643345
0.0096682236 -0.044402976 0.0062188623
-0.01092382 -0.044126123 0.006221808
0.020115297 -0.040771715 0.0062609348
-0.00067161414 -0.031965245 0.0062754811
-0.0033143135 -0.031777121 0.0062084063
0.033366829 -0.030882778 0.0062163905
-0.033999726 -0.030140087 0.0062257745
-0.041143887 -0.019271415 0.0062296218
-0.033326343 -0.0084750233 0.0062346258
-0.0041706976 -0.00768751 0.0062542865
0.00121137 -0.0071231746 0.0062901834
-0.045076758 -0.0056008343 0.0062996708
0.045163848 -0.0052529192 0.0062076803
0.0073811556 -0.0046733441 0.0062227696
0.0020591249 0.0023626043 0.0062927096
0.045241699 0.0040596966 0.0062596695
0.00421164 0.0059579974 0.0062090252
-2.8657596e-06 0.0064731007 0.0062758308
-0.00052997825 0.0072697969 0.0062695998
-0.044761486 0.0078317672 0.0062892442
-0.043551646 0.012904376 0.0062562544
-0.043011144 0.014635523 0.0062317285
0.042773359 0.015411478 0.0062835175
-0.041244302 0.019167641 0.0062859189
0.037622645 0.025449149 0.0062267724
0.034536198 0.029504567 0.0062560355
-0.03017373 0.033968218 0.0062937373
0.016390136 0.042364825 0.0062357392
0.014673509 0.043005534 0.0062300032
0.013770476 0.043302536 0.0062360903
0.011913599 0.043834336 0.0062164608
-0.0055133463 0.045115802 0.0062148655
-0.0042377003 0.045270078 0.0062055951
0.011114077 -0.044077709 0.0063443836
0.011734609 -0.043894868 0.0063536223
0.013263386 -0.04344441 0.0063697393
0.013670031 -0.043316983 0.0063670748
-0.015088983 -0.042868108 0.0063500451
0.017937262 -0.041732155 0.006330499
-0.010106321 -0.041394461 0.0063472502
0.019552084 -0.041020073 0.0063611744
0.021911956 -0.039789982 0.0063169245
-0.022499878 -0.039467294 0.0063248659
-0.023300793 -0.039008826 0.0063591576
-0.024364768 -0.038355827 0.0063588284
-0.0039815255 -0.030572034 0.0063916943
0.033842154 -0.030336361 0.0063393749
-0.03905198 -0.023199387 0.0063209971
-0.040882342 -0.019798346 0.0063093789
0.042291563 -0.016586782 0.0063706776
0.043804646 -0.012027994 0.0063319681
0.04389111 -0.011695242 0.0063861744
-0.033063937 -0.0092671057 0.0063227573
-0.001211684 -0.0086547872 0.0063936496
-0.0024211442 -0.0084076952 0.006390715
0.0046637822 -0.0073873396 0.0063402657
0.0014491894 -0.0070848232 0.0063442304
-0.0011453402 -0.0058015827 0.0063346261
-0.0033673125 -0.0049336944 0.006335767
0.0049860626 -0.0034721305 0.0063396674
-0.045361251 -0.0030026902 0.006354156
-0.0071971267 -0.00078837731 0.0063659041
-0.0047830637 0.0054250122 0.0063829999
0.045124225 0.0055145579 0.0063381526
-0.0016995945 0.0061735511 0.0063188984
-0.0058388161 0.0065155155 0.0063295034
0.04416655 0.010659566 0.0063489554
0.041875288 0.017668638 0.0063780514
0.028506072 0.01982126 0.0063868193
-0.03514516 0.028808713 0.0063336231
-0.032207541 0.032073244 0.0063450793
-0.0018999014 0.034624621 0.00632268
-0.027244724 0.036368884 0.0063643917
-0.020963144 0.040299051 0.0063700737
-0.017012389 0.042133953 0.006346182
0.0087478515 0.042268336 0.0063624247
0.016611964 0.04228203 0.0063440697
-0.016434904 0.04238667 0.0063094324
0.011758948 0.043880884 0.0063373782
-0.0077120429 -0.044808965 0.0064945482
-0.0099361334 -0.044323172 0.0064246682
0.00068356289 -0.043700844 0.0064999913
0.0012484347 -0.043753494 0.0064999913
-0.0044658314 -0.043692514 0.0064999918
-0.001503985 -0.04366605 0.0064999913
-0.0051320987 -0.043408614 0.0064999918
-0.0058535282 -0.043348912 0.0064999913
-0.0071309414 -0.043044142 0.0064999918
0.0067578601 -0.042952541 0.0064999918
0.0068124221 -0.042915728 0.0064999913
0.0080467779 -0.04297407 0.0064999918
-0.00088066084 -0.042885762 0.0064999908
0.0038837194 -0.042837024 0.0064999918
0.00079949899 -0.042756371 0.0064999913
0.0020481411 -0.042764116 0.0064999913
0.0033638664 -0.042782389 0.0064999913
0.015653593 -0.042674169 0.0064421715
0.016123338 -0.042524848 0.0064169317
-0.0042825588 -0.04240077 0.0064999913
0.0064442009 -0.042430896 0.0064999918
0.0043313731 -0.042348925 0.0064999913
0.010657152 -0.042318892 0.0064999913
0.0029461747 -0.042202726 0.0064999918
0.010546922 -0.042283367 0.0064999913
-0.0047104675 -0.042105302 0.0064999913
0.0023726285 -0.042169593 0.0064999908
-0.0032217624 -0.042046055 0.0064999913
-0.0020596618 -0.042018726 0.0064999913
-0.001105791 -0.041947331 0.0064999913
0.0026536149 -0.041852739 0.0064999913
0.0092235878 -0.041815162 0.0064999913
0.0070324689 -0.041637085 0.0064999918
-0.0012321402 -0.041556962 0.0064999918
0.0075787688 -0.041525055 0.0064999913
0.010105236 -0.041593149 0.0064999913
0.011993372 -0.041523244 0.0064999913
-0.011301121 -0.041432939 0.006484732
0.0036959187 -0.041430071 0.0064999918
-0.00086051133 -0.041327178 0.0064999913
-0.0037634487 -0.041240685 0.0064999918
-0.0035429811 -0.041203562 0.0064999918
0.0050246753 -0.041274637 0.0064999908
-0.0034588871 -0.041190151 0.0064999913
0.014516852 -0.041191567 0.0064999913
0.011914436 -0.041068751 0.0064999918
-0.0010650465 -0.040916085 0.0064999918
0.0093074739 -0.040978797 0.0064999913
0.013762098 -0.040924039 0.0064999908
-0.0041946527 -0.040884893 0.0064999908
0.0064325696 -0.040873624 0.0064999908
0.0072264085 -0.04086937 0.0064999913
0.004652245 -0.040677346 0.0064999913
0.0061224615 -0.040601306 0.0064999908
-0.0050883121 -0.040590052 0.0064999913
-0.0035697096 -0.040553093 0.0064999918
-0.0024146147 -0.040551152 0.0064999908
0.0039652716 -0.040526867 0.0064999913
0.009880255 -0.040567573 0.0064999913
0.01054495 -0.040556896 0.0064999913
0.0053603873 -0.040467158 0.0064999918
0.009008307 -0.040452681 0.0064999918
0.013417178 -0.040477633 0.0064999913
0.016386632 -0.040464431 0.0064999913
0.01725731 -0.040340766 0.0064999908
0.01271398 -0.040259752 0.0064999913
-0.0028444806 -0.040198047 0.0064999913
-0.00012934627 -0.040192701 0.0064999913
0.0072661941 -0.040170617 0.0064999913
-0.017624106 -0.040028956 0.0064999908
0.015726333 -0.039908927 0.0064999908
0.017704811 -0.03993639 0.0064999913
-0.017955199 -0.039829012 0.0064999913
0.0053413296 -0.039893948 0.0064999913
-0.0078147743 -0.0397573 0.0064034094
0.013162637 -0.039596442 0.0064999908
0.010505313 -0.039487593 0.0064999918
0.010652732 -0.039390016 0.0064999908
0.015524348 -0.039312992 0.0064999913
0.019666309 -0.039204974 0.0064999913
0.00099133956 -0.03916955 0.0064999913
0.0082380623 -0.039169751 0.0064999908
-0.0036406915 -0.039080035 0.0064999913
0.013935266 -0.039071552 0.0064999918
0.011026845 -0.038908854 0.0064999913
0.019496066 -0.038995411 0.0064999913
0.0029006391 -0.03885778 0.0064999918
0.015939534 -0.038897958 0.0064999913
-0.019607279 -0.038798593 0.0064999913
-0.003447067 -0.038744155 0.0064999913
0.0030874356 -0.038711991 0.0064999908
0.007583716 -0.038732473 0.0064999913
0.0079182955 -0.038793601 0.0064999913
0.0094475336 -0.038786124 0.0064999913
0.010465708 -0.038765524 0.0064999908
0.010523322 -0.038773842 0.0064999908
0.01176338 -0.038711905 0.0064999908
0.020162024 -0.038752921 0.0064999913
-0.019347047 -0.038627934 0.0064999908
-0.017120745 -0.038676299 0.0064999913
-0.017038397 -0.038683426 0.0064999913
0.013609766 -0.03864168 0.0064999908
0.0054879552 -0.038559712 0.0064999908
0.020307403 -0.038510337 0.0064999918
0.0053482018 -0.038445055 0.0064999908
0.014820758 -0.038441919 0.0064999913
0.017886514 -0.038417231 0.0064999913
-0.017199362 -0.038330071 0.0064999913
0.0018585423 -0.038300578 0.0064999913
0.015364379 -0.038378432 0.0064999913
0.0014579872 -0.038267326 0.0064999913
0.002242123 -0.038292725 0.0064999918
0.012362435 -0.038219877 0.0064999913
0.01318475 -0.038253091 0.0064999913
0.020818006 -0.038228326 0.0064999908
-0.0038573788 -0.038156848 0.0064999913
0.011237578 -0.038101673 0.0064999913
0.013613123 -0.038101882 0.0064999913
0.014683156 -0.038130678 0.0064999913
0.016400296 -0.03815265 0.0064999913
0.018869862 -0.038184997 0.0064999913
-0.021944601 -0.038022134 0.0064999913
0.0064130393 -0.038011387 0.0064999918
0.011822856 -0.038015336 0.0064999918
0.024760431 -0.03808951 0.0064697866
0.019579774 -0.037940938 0.0064999913
0.0079076691 -0.037821375 0.0064999908
-0.017450711 -0.037720401 0.0064999913
0.0004531478 -0.0377561 0.0064999918
0.0013094442 -0.037732746 0.0064999913
0.0026124376 -0.037783075 0.0064999913
0.0072949911 -0.037796143 0.0064999913
0.013125463 -0.037702747 0.0064999913
0.012113289 -0.03768833 0.0064999908
-0.0014371062 -0.037594922 0.0064999913
-0.003324226 -0.037493043 0.0064999913
0.012299473 -0.0374237 0.0064999918
0.018919325 -0.037475221 0.0064999908
0.020142745 -0.037451856 0.0064999918
0.021644585 -0.037468545 0.0064999913
-0.018731561 -0.037390988 0.0064999913
-0.017828453 -0.037105322 0.0064999913
0.0057676742 -0.037147075 0.0064999913
0.0096855201 -0.037162192 0.0064999908
0.019326897 -0.037161857 0.0064999913
-0.00082853716 -0.037097022 0.0064999913
0.00022093789 -0.037038207 0.0064999908
0.0028607938 -0.037077334 0.0064999918
0.0069814706 -0.037044499 0.0064999913
-0.026480973 -0.036905557 0.0064760149
-0.020073341 -0.036960483 0.0064999908
-0.019842269 -0.036971845 0.0064999913
-0.0033221771 -0.036970209 0.0064999913
0.0093988497 -0.03692976 0.0064999913
0.013563223 -0.03686557 0.0064999913
0.018875765 -0.036816172 0.0064999913
0.0028022639 -0.036758006 0.0064999918
0.016444927 -0.03670248 0.0064999918
-0.0018492592 -0.036629707 0.0064999913
0.020012742 -0.036620386 0.0064999913
-0.014007209 -0.036575526 0.0064732693
0.0044245347 -0.036521193 0.0064999913
0.024095837 -0.036532238 0.0064999908
0.010710249 -0.036414389 0.0064999908
0.016005237 -0.036448352 0.0064999918
0.018907882 -0.03644779 0.0064999913
0.011952592 -0.036363222 0.0064999908
0.0035932916 -0.036223881 0.0064999918
0.015686138 -0.036279142 0.0064999913
-0.016642859 -0.036189862 0.0064999913
0.0060400604 -0.036109239 0.0064999908
-0.021272369 -0.036036834 0.0064999913
-0.022214059 -0.035950385 0.0064999913
-0.0026425724 -0.035996571 0.0064999908
0.012062171 -0.035905756 0.0064999918
0.017346483 -0.035910536 0.0064999908
0.023081241 -0.035921536 0.0064999913
-0.0025694445 -0.035889409 0.0064999913
0.0090702781 -0.035827026 0.0064999918
0.016093906 -0.035885382 0.0064999913
0.016574159 -0.035822444 0.0064999913
0.025160609 -0.03587985 0.0064999913
-0.019946216 -0.035710089 0.0064999913
-0.024279125 -0.035650596 0.0064999913
-0.018257681 -0.035638221 0.0064999908
-0.0020745089 -0.035654236 0.0064999913
0.00052000512 -0.035639308 0.0064999913
0.025333976 -0.035644721 0.0064999913
-0.02563354 -0.035539843 0.0064999913
-0.022408329 -0.035556279 0.0064999918
-0.0038569006 -0.035500582 0.0064999913
0.0025642982 -0.035557687 0.0064999913
0.0039711092 -0.035508841 0.0064999908
0.00589009 -0.035599075 0.0064999913
0.0063886861 -0.03555936 0.0064999918
0.0089719258 -0.035575259 0.0064999913
0.011354972 -0.035532784 0.0064999913
0.012613677 -0.035551019 0.0064999913
0.024861865 -0.035544105 0.0064999913
-0.0052037411 -0.035431199 0.0064999908
-0.0051626316 -0.03544211 0.0064999918
0.017599486 -0.035419196 0.0064999913
-0.025462868 -0.03534326 0.0064999913
0.0064590834 -0.035306308 0.0064999908
0.0099051567 -0.035332359 0.0064999908
-0.02143893 -0.035248324 0.0064999913
0.0097263455 -0.035107341 0.0064999908
-0.021496652 -0.035005275 0.0064999913
-0.018762022 -0.035099924 0.0064999913
0.0019448345 -0.035083886 0.0064999913
0.015906811 -0.035004914 0.0064999913
-0.024193756 -0.034964077 0.0064999913
-0.0036070347 -0.034987193 0.0064999918
0.012996844 -0.034918927 0.0064999908
0.020461608 -0.03491246 0.0064999913
0.023599379 -0.034937344 0.0064999913
0.02424372 -0.034924656 0.0064999918
-0.0024008558 -0.034895495 0.0064999913
0.004280936 -0.034878831 0.0064999913
0.023600578 -0.034851491 0.0064999908
-0.00034942402 -0.034768246 0.0064999913
-0.025007607 -0.034674309 0.0064999913
-0.024787579 -0.034636166 0.0064999918
-0.02549451 -0.034500375 0.0064999913
-0.017214643 -0.03454119 0.0064999913
0.015569443 -0.034588389 0.0064999918
0.013538215 -0.034415178 0.0064999913
-0.0047849407 -0.034346074 0.0064999913
0.013531454 -0.034329928 0.0064999908
0.018632455 -0.034349196 0.0064999913
-0.02754407 -0.034252364 0.0064999913
0.0055924784 -0.034268737 0.0064999918
0.014239068 -0.034268171 0.0064999913
0.017174961 -0.034209464 0.0064999908
0.025309224 -0.034225408 0.0064999918
-0.015442751 -0.034152728 0.0064999913
-0.005407169 -0.034146022 0.0064999918
0.0046003247 -0.034159124 0.0064999913
0.0090930592 -0.034180418 0.0064999918
-0.016283605 -0.034066275 0.0064999908
0.01021831 -0.034099765 0.0064999913
0.02222836 -0.03407608 0.0064999908
0.024314925 -0.034005113 0.0064999918
-0.024732221 -0.033953283 0.0064999913
0.00036020414 -0.033933111 0.0064999913
0.00067365664 -0.033987105 0.0064999913
0.0013728091 -0.033949666 0.0064999913
0.025650488 -0.033988766 0.0064999918
-0.017900907 -0.033886034 0.0064999918
-0.0021852977 -0.033846375 0.0064999918
0.024881644 -0.033861056 0.0064999913
-0.015262241 -0.033793952 0.0064999918
0.0049337759 -0.033733793 0.0064999913
0.019153729 -0.033712246 0.0064999918
0.027867937 -0.033759769 0.0064999913
0.0015369477 -0.033680473 0.0064999913
0.0018633166 -0.033662889 0.0064999913
0.025160041 -0.033676066 0.0064999913
0.025422402 -0.033620663 0.0064999913
0.025610082 -0.03366629 0.0064999913
0.011823886 -0.0335472 0.0064999913
-0.019130534 -0.033462241 0.0064999913
0.022192027 -0.033457372 0.0064999913
0.022208253 -0.033424154 0.0064999913
0.0041765734 -0.033394836 0.0064999913
0.025892144 -0.033324845 0.0064999913
0.028349712 -0.033335093 0.0064999913
0.021420669 -0.033200886 0.0064999913
-0.017822362 -0.033131279 0.0064999913
0.024412351 -0.033108458 0.0064999913
-0.019833252 -0.033091065 0.0064999918
0.005189558 -0.033073802 0.0064999918
0.006867771 -0.033033978 0.0064999913
0.022557462 -0.033064459 0.0064999918
-0.028440064 -0.032916065 0.0064999913
-0.018510532 -0.032997757 0.0064999913
0.018879812 -0.032958582 0.0064999908
-0.027038593 -0.032711226 0.0064999913
-0.023446273 -0.032733511 0.0064999918
0.012459624 -0.032753792 0.0064999908
0.01863295 -0.032708269 0.0064999918
0.022155786 -0.032732524 0.0064999918
0.027850859 -0.032728083 0.0064999913
0.021050787 -0.032648999 0.0064999913
0.02688713 -0.032678559 0.0064999918
-0.026056925 -0.032554101 0.0064999918
0.0076851747 -0.032505028 0.0064999913
0.0094828391 -0.032528553 0.0064999913
0.011087711 -0.0325258 0.0064999913
0.016004039 -0.032430597 0.0064999908
0.026332678 -0.032475542 0.0064999908
0.028651856 -0.032485675 0.0064999913
-0.029127631 -0.032318126 0.0064999913
0.012535786 -0.032353234 0.0064999913
0.012939684 -0.032323658 0.0064999918
0.013815291 -0.032398067 0.0064999918
0.012605323 -0.032269925 0.0064999918
0.023271497 -0.032220695 0.0064999913
-0.032088928 -0.032199085 0.006470432
-0.023095991 -0.032185573 0.0064999918
-0.021859858 -0.032113887 0.0064999908
0.022560878 -0.032149639 0.0064999918
-0.022587165 -0.032058105 0.0064999913
0.015266027 -0.031802107 0.0064999913
0.022863245 -0.031763814 0.0064999908
-0.011777238 -0.031687733 0.0064999913
-0.010879213 -0.031694651 0.0064999913
-0.012037155 -0.031500407 0.0064999913
-0.0073363171 -0.031593546 0.0064999913
0.012859896 -0.031517383 0.0064999913
0.01515322 -0.031523194 0.0064999908
0.030226987 -0.031525042 0.0064999918
0.030409748 -0.031525776 0.0064999913
-0.026986143 -0.031402461 0.0064999908
-0.017674571 -0.031485777 0.0064999913
0.00095671357 -0.031474181 0.0064999913
0.017239455 -0.031499807 0.0064999918
0.018363606 -0.031474825 0.0064999913
0.010643836 -0.031364061 0.0064999908
0.012883625 -0.031307589 0.0064999913
0.0031962183 -0.031257432 0.0064999918
0.025487317 -0.031158652 0.0064999913
-0.027578287 -0.031084277 0.0064999913
0.0039094114 -0.031005125 0.0064999913
0.028343666 -0.031086989 0.0064999913
-0.015256115 -0.030996406 0.0064999913
-0.012244342 -0.030900322 0.0064999913
-0.0054206345 -0.030934742 0.0064999913
-0.033332106 -0.030873692 0.0064993477
-0.027708622 -0.030800482 0.0064999918
-0.026008878 -0.030841701 0.0064999913
-0.01766118 -0.03080754 0.0064999913
-0.0056132684 -0.030843524 0.0064999913
0.012901023 -0.030854236 0.0064999913
0.027874589 -0.030873019 0.0064999908
-0.018081538 -0.03071882 0.0064999913
-0.019988472 -0.030682515 0.0064999913
-0.012622051 -0.030601833 0.0064999913
0.00273115 -0.030624446 0.0064999913
0.0034862093 -0.030687749 0.0064999913
0.0049598855 -0.030644763 0.0064999918
0.016236182 -0.0306799 0.0064999913
0.0059358263 -0.030546917 0.0064999913
0.010075796 -0.030524805 0.0064999913
0.010866332 -0.030525867 0.0064999918
0.015898779 -0.030539878 0.0064999908
0.019863613 -0.030561846 0.0064999918
0.022313889 -0.030558236 0.0064999918
0.022423491 -0.030550357 0.0064999913
0.02703815 -0.030527925 0.0064999908
-0.016666191 -0.030435722 0.0064999913
-0.013067157 -0.030471176 0.0064999908
0.0033188793 -0.030464221 0.0064999913
0.024540935 -0.030451229 0.0064999913
0.028789375 -0.030436913 0.0064999913
-0.01909152 -0.030399961 0.0064999908
-0.016727801 -0.030393453 0.0064999913
-0.005357381 -0.030311199 0.0064999918
-0.031212913 -0.030231904 0.0064999913
-0.021318946 -0.030280577 0.0064999913
-0.0104825 -0.030261718 0.0064999913
-0.0073435772 -0.030245116 0.0064999908
-0.0072928807 -0.030227551 0.0064999918
0.028447211 -0.03029561 0.0064999908
-0.022235703 -0.030158889 0.0064999913
-0.018622082 -0.030105568 0.0064999908
0.011239313 -0.030131111 0.0064999908
0.015073657 -0.03010473 0.0064999913
0.021201191 -0.030142214 0.0064999913
-0.030893911 -0.030026857 0.0064999913
-0.0046897084 -0.030013844 0.0064999913
0.029310543 -0.030075328 0.0064999913
-0.01919787 -0.02991984 0.0064999913
-0.0046443427 -0.029921191 0.0064999913
0.0035793837 -0.029911458 0.0064999908
0.0063067796 -0.029933665 0.0064999913
0.011842793 -0.029961821 0.0064999913
0.024010535 -0.029975409 0.0064999913
0.028194556 -0.029984485 0.0064999913
0.029468717 -0.029908253 0.0064999918
0.031157367 -0.029974991 0.0064999913
-0.019932779 -0.02984862 0.0064999913
-0.015697185 -0.029895224 0.0064999918
-0.0078832516 -0.029887754 0.0064999908
0.021798059 -0.029879626 0.0064999913
0.022106715 -0.029899634 0.0064999913
0.029534677 -0.029841319 0.0064999913
0.031507488 -0.029887844 0.0064999913
-0.024082577 -0.029729176 0.0064999913
0.0019093414 -0.029785896 0.0064999908
0.0039869105 -0.029776417 0.0064999918
0.0054664835 -0.029779779 0.0064999913
-0.032319121 -0.029625675 0.0064999918
-0.018793654 -0.029681932 0.0064999908
0.0014233107 -0.02967573 0.0064999913
0.011408188 -0.029629659 0.0064999913
-0.031888492 -0.029587202 0.0064999908
-0.029069116 -0.029572409 0.0064999913
-0.023341814 -0.029512322 0.0064999913
-0.015510065 -0.029537149 0.0064999913
-0.011668607 -0.029587192 0.0064999913
0.014456266 -0.029575389 0.0064999913
0.020334169 -0.029589633 0.0064999913
0.025056742 -0.029503632 0.0064999913
0.028901901 -0.029507279 0.0064999913
-0.022728087 -0.02949018 0.0064999913
0.031871982 -0.029493073 0.0064999908
-0.014383945 -0.029375471 0.0064999913
-0.012617163 -0.029362688 0.0064999908
-0.021205246 -0.029244896 0.0064999913
-0.0094804652 -0.029277876 0.0064999913
0.0086044241 -0.029233523 0.0064999908
0.030931776 -0.029204711 0.0064999913
-0.019777382 -0.029190138 0.0064999913
-0.019518927 -0.029167766 0.0064999908
-0.017964408 -0.029111668 0.0064999913
-0.016225988 -0.029101346 0.0064999913
-0.01524197 -0.02912567 0.0064999908
0.01998445 -0.029139297 0.0064999908
0.024482545 -0.029119637 0.0064999913
-0.02085893 -0.029004861 0.0064999908
-0.015046296 -0.029041046 0.0064999908
-0.014313777 -0.029034663 0.0064999908
-0.0091825426 -0.029032469 0.0064999918
0.0015138814 -0.029084429 0.0064999913
0.0022433857 -0.029009614 0.0064999913
-0.030843372 -0.02899983 0.0064999913
-0.0079345033 -0.028939703 0.0064999913
-0.0014670923 -0.028919995 0.0064587831
0.008035589 -0.028946564 0.0064999913
0.0085471412 -0.02898431 0.0064999908
0.029134693 -0.028940508 0.0064999918
0.030193035 -0.028906468 0.0064999913
-0.016175378 -0.028821111 0.0064999918
0.018806422 -0.028833602 0.0064999918
0.024963487 -0.028870342 0.0064999918
0.029344458 -0.028802961 0.0064999913
-0.014321468 -0.028781977 0.0064999918
-0.013380351 -0.028716326 0.0064999908
-0.004871536 -0.028724451 0.0064999918
0.031506073 -0.028726203 0.0064999913
-0.019835576 -0.028623383 0.0064999908
-0.017969087 -0.028679054 0.0064999908
-0.0068465546 -0.028639583 0.0064999913
0.0080030356 -0.028698428 0.0064999913
0.01896359 -0.028653935 0.0064999913
-0.021607291 -0.028563298 0.0064999918
-0.0061412058 -0.028518973 0.0064999908
-0.0020134777 -0.028527632 0.0064999908
0.001128486 -0.028565226 0.0064999913
0.013983864 -0.028504569 0.0064999908
0.027489066 -0.028547391 0.0064999913
-0.023884872 -0.028440449 0.0064999913
-0.017298954 -0.028452829 0.0064999908
-0.015130396 -0.02842297 0.0064999918
0.02161029 -0.028426709 0.0064999918
0.023322251 -0.02844925 0.0064999913
0.023795623 -0.028434407 0.0064999913
0.027134722 -0.028444 0.0064999918
-0.019045802 -0.028335519 0.0064999913
-0.016697945 -0.028333994 0.0064999913
-0.0035193567 -0.028348446 0.0064999913
0.021241831 -0.028368991 0.0064999918
0.032471381 -0.02833005 0.0064999913
-0.029219769 -0.028242711 0.0064999918
-0.021839997 -0.028210171 0.0064999908
-0.016980406 -0.028287629 0.0064999913
-0.0068858545 -0.02821219 0.0064999913
-0.0041413615 -0.028238904 0.0064999908
0.007429176 -0.02823301 0.0064999908
0.019232972 -0.028270809 0.0064999913
-0.029487986 -0.028138649 0.0064999908
-0.0039413618 -0.028160417 0.0064999918
0.018351646 -0.028058626 0.0064999913
-0.013464477 -0.027989384 0.0064999918
-0.0056890794 -0.027905401 0.0064999908
0.0038630068 -0.027932946 0.0064999908
0.0092498781 -0.027921645 0.0064999908
0.031188063 -0.027976863 0.0064999913
-0.032359321 -0.02783254 0.0064999913
-0.014938156 -0.027850274 0.0064999908
0.011036382 -0.027818574 0.0064999913
0.015578423 -0.0278954 0.0064999918
0.023360617 -0.02783009 0.0064999918
0.028503811 -0.027808964 0.0064999913
-0.031070251 -0.027798753 0.0064999913
-0.0065347198 -0.027728029 0.0064999918
0.030273864 -0.027700845 0.0064999908
-0.030702816 -0.027630651 0.0064999908
-0.029396867 -0.027697593 0.0064999913
-0.025190609 -0.027682558 0.0064999908
-0.020805152 -0.027686434 0.0064999908
-0.018771313 -0.027672349 0.0064999913
0.0094584916 -0.027644571 0.0064999908
0.020924903 -0.027675014 0.0064999908
0.023420958 -0.027622584 0.0064999918
0.029320907 -0.027675392 0.0064999913
-0.032889578 -0.02756154 0.0064999913
-0.025756508 -0.027599895 0.0064999908
-0.01723348 -0.027535884 0.0064999913
-0.0090917069 -0.027510952 0.0064999913
-0.0083627161 -0.0275895 0.0064999918
-0.0076406677 -0.027577806 0.0064999918
-0.0068411375 -0.027575906 0.0064999908
0.011240894 -0.027541371 0.0064999913
0.014835622 -0.027538519 0.0064999913
0.01961687 -0.027581651 0.0064999908
-0.025593389 -0.027464598 0.0064999908
-0.022436723 -0.027461156 0.0064999913
-0.005632746 -0.027454225 0.0064999908
0.019475518 -0.027470117 0.0064999913
0.024581973 -0.027420022 0.0064999908
-0.03055742 -0.027327714 0.0064999908
-0.0096101379 -0.027375424 0.0064999913
0.010935826 -0.027383775 0.0064999913
0.026876384 -0.02732506 0.0064999908
0.029327454 -0.027389074 0.0064999918
-0.023608409 -0.02724023 0.0064999918
-0.016551875 -0.027263863 0.0064999918
0.0075257923 -0.027221939 0.0064999913
0.02516247 -0.027230185 0.0064999908
0.032037348 -0.027216475 0.0064999913
0.0031688353 -0.027143624 0.0064999913
0.010012716 -0.027101267 0.0064999913
0.020730566 -0.02718088 0.0064999913
-0.031235483 -0.027093776 0.0064999918
0.0038416022 -0.02708545 0.0064999913
0.025891565 -0.027069278 0.0064999913
-0.031306554 -0.026955534 0.0064999918
-0.025452515 -0.026941124 0.0064999908
0.0049059847 -0.026981276 0.0064999918
0.019200861 -0.026983837 0.0064999913
0.02688374 -0.026976163 0.0064999913
0.027940309 -0.026933139 0.0064999913
-0.031227745 -0.026824037 0.0064999913
-0.030298419 -0.026816936 0.0064999908
0.003411008 -0.026820831 0.0064999913
0.0089001106 -0.026843816 0.0064999913
0.024985105 -0.026804296 0.0064999913
0.027900286 -0.02687086 0.0064999913
0.003868894 -0.026749335 0.0064999913
0.025574435 -0.026755985 0.0064999913
-0.027350331 -0.026629707 0.0064999918
0.025176842 -0.026627824 0.0064999913
0.026077062 -0.026656944 0.0064999913
-0.027084282 -0.026569488 0.0064999918
0.0083489176 -0.026576053 0.0064999918
0.0085759992 -0.026541919 0.0064999913
0.010045467 -0.02652413 0.0064999908
0.011149263 -0.026596025 0.0064999913
0.033271331 -0.026562249 0.0064999913
0.033662595 -0.02658329 0.0064999918
0.021784456 -0.026426336 0.0064999913
-0.032142103 -0.026348753 0.0064999908
-0.026077051 -0.026393745 0.0064999913
0.0072039487 -0.026384506 0.0064999913
-0.034417033 -0.026285369 0.0064999908
0.033396143 -0.026289895 0.0064999913
-0.033253845 -0.026143944 0.0064999908
-0.032414764 -0.026147386 0.0064999908
0.0002990184 -0.026100339 0.0064999913
0.012257401 -0.026101515 0.0064999913
-0.027001506 -0.026005089 0.0064999918
-0.023953946 -0.026084382 0.0064999913
0.0063357293 -0.026043614 0.0064999913
0.0066486015 -0.026045965 0.0064999913
0.024797851 -0.026084928 0.0064999908
0.030337926 -0.026042752 0.0064999913
0.030599896 -0.026099574 0.0064999913
0.034192376 -0.026008442 0.0064999913
0.020758986 -0.025971653 0.0064999913
0.026958859 -0.02596646 0.0064999913
-0.031401563 -0.025811138 0.0064999908
-0.022532759 -0.025870577 0.0064999908
0.011436382 -0.025832206 0.0064999918
0.027328573 -0.025809884 0.0064999918
0.030998249 -0.02584362 0.0064999908
0.033032063 -0.0258392 0.0064999913
-0.0025222816 -0.025713965 0.0064999913
0.012979241 -0.025728479 0.0064999913
0.031779557 -0.025770765 0.0064999913
0.033541061 -0.025768474 0.0064999918
-0.034955371 -0.025646385 0.0064999908
-0.0064540529 -0.025641134 0.0064999913
0.034879759 -0.025679318 0.0064999913
-0.02721104 -0.025505591 0.0064999908
-0.0042890259 -0.025544394 0.0064999908
0.0083916113 -0.025548112 0.0064999918
0.018571705 -0.025599211 0.0064999913
0.024921384 -0.025513813 0.0064999913
-0.03531583 -0.025415279 0.0064999913
-0.035137586 -0.025498766 0.0064999913
-0.016870491 -0.025445772 0.0064999908
-0.0078090411 -0.025415093 0.0064999913
-0.0042549572 -0.025497377 0.0064999913
-0.0037756381 -0.025441106 0.0064999913
0.0019830829 -0.025431443 0.0064999918
0.017628381 -0.025491102 0.0064999913
0.019554615 -0.025461385 0.0064999908
0.035449851 -0.02549091 0.0064999913
-0.027140778 -0.025355037 0.0064999913
-0.024151476 -0.02534054 0.0064999918
-0.00965284 -0.02538744 0.0064999918
0.011636813 -0.025366832 0.0064999918
0.023138076 -0.025362676 0.0064999913
-0.024642743 -0.025287416 0.0064999918
-0.016794523 -0.025243141 0.0064999908
-0.011398566 -0.025235092 0.0064999918
0.02369152 -0.025224218 0.0064999918
0.03470647 -0.025282547 0.0064999918
-0.035212841 -0.025148354 0.0064999908
-0.035035584 -0.025198942 0.0064999908
-0.028320406 -0.025136847 0.0064999908
-0.018599307 -0.025140559 0.0064999913
0.027052026 -0.025190264 0.0064999913
-0.031543393 -0.025068766 0.0064999918
-0.011843426 -0.025054432 0.0064999913
0.010946511 -0.025084633 0.0064999908
0.019899324 -0.02503811 0.0064999913
0.024063941 -0.025009139 0.0064999918
-0.0050800899 -0.024947159 0.0064999918
0.0085510965 -0.024922155 0.0064999913
0.022523815 -0.024937738 0.0064999908
0.034665138 -0.024998076 0.0064999908
-0.033424798 -0.02485301 0.0064999913
-0.0091301454 -0.024835464 0.0064999913
0.023056265 -0.024834283 0.0064999908
-0.024775432 -0.024796678 0.0064999918
0.025949191 -0.024722246 0.0064999913
0.035288069 -0.024727292 0.0064999913
-0.027077565 -0.024699006 0.0064999913
-0.0092844591 -0.024661295 0.0064999913
0.0308819 -0.024643857 0.0064999908
0.031393666 -0.02465339 0.0064999908
0.031820081 -0.024657648 0.0064999913
-0.035060942 -0.024574632 0.0064999918
-0.01540975 -0.024561774 0.0064999913
0.0022139386 -0.024563573 0.0064999918
0.032031078 -0.024567556 0.0064999913
-0.017509388 -0.02440759 0.0064999913
0.003266775 -0.024457872 0.0064999913
0.021007949 -0.024458779 0.0064999913
0.029761337 -0.024451666 0.0064999908
-0.0091961175 -0.024347272 0.0064999913
0.0033774327 -0.024356408 0.0064999918
0.019963037 -0.024382524 0.0064999913
0.023987109 -0.024312215 0.0064999913
0.032762669 -0.024307992 0.0064999918
-0.035019379 -0.024249451 0.0064999918
-0.034884546 -0.024202075 0.0064999913
-0.013678798 -0.024248593 0.0064999913
-0.0084910709 -0.024230435 0.0064999913
0.0087041352 -0.02423979 0.0064999918
0.035295948 -0.024203913 0.0064999913
-0.036096085 -0.024162369 0.0064999913
-0.017432408 -0.024137979 0.0064999908
0.011731423 -0.024157306 0.0064999908
0.018453887 -0.024148518 0.0064999913
0.031967573 -0.024185196 0.0064999913
-0.02972579 -0.024083145 0.0064999918
0.0036798581 -0.024007425 0.0064999913
0.024047697 -0.024061287 0.0064999913
-0.014285954 -0.023977589 0.0064999913
-0.0086936671 -0.02394912 0.0064999918
0.013680856 -0.02395197 0.0064999913
0.021403505 -0.023981543 0.0064999918
0.028548744 -0.023930475 0.0064999913
0.033677071 -0.023932122 0.0064999913
0.019058317 -0.023871029 0.0064999913
0.032887202 -0.023870856 0.0064999918
-0.034502856 -0.023753669 0.0064999913
0.014804596 -0.023753248 0.0064999913
0.025864709 -0.023775928 0.0064999908
0.036479447 -0.023700299 0.0064999908
-0.02666275 -0.023635939 0.0064999908
-0.025046118 -0.023668943 0.0064999908
-0.014081709 -0.023608807 0.0064999918
0.0032016663 -0.023682654 0.0064999918
0.0049480521 -0.023621012 0.0064999908
0.036547266 -0.023644496 0.0064999908
-0.030135367 -0.023538718 0.0064999918
-0.028265741 -0.02343367 0.0064999913
0.0060277181 -0.02345546 0.0064999908
0.011069602 -0.02345871 0.0064999908
0.015696807 -0.02342457 0.0064999908
0.027915485 -0.023470853 0.0064999908
-0.012502563 -0.023338301 0.0064999908
0.0042599658 -0.023352744 0.0064999913
0.028570507 -0.023369927 0.0064999913
0.032582812 -0.023229726 0.0064999913
-0.025715554 -0.023072366 0.0064999908
-0.0052126781 -0.023001153 0.0064999913
0.021787856 -0.023082094 0.0064999913
0.039162666 -0.023010774 0.0064840526
-0.036705717 -0.022966409 0.0064999918
-0.030488836 -0.022902189 0.0064999913
0.01256418 -0.022969302 0.0064999913
0.013275985 -0.022985581 0.0064999913
0.029971052 -0.022955805 0.0064999913
0.036974214 -0.022947922 0.0064999913
-0.035090886 -0.022859013 0.0064999913
-0.017335726 -0.022802752 0.0064999913
-0.0053857081 -0.022834515 0.0064999908
0.014786212 -0.022822432 0.0064999913
0.029259771 -0.022882536 0.0064999913
0.029845942 -0.022874653 0.0064999913
0.030635593 -0.022836877 0.0064999913
-0.030797718 -0.022757243 0.0064999913
0.00078725966 -0.022762032 0.0064999918
0.025574051 -0.022776749 0.0064999918
0.036036104 -0.022798367 0.0064999913
-0.029069468 -0.022650851 0.0064999913
-0.017365733 -0.022644818 0.0064999908
0.020039182 -0.022665497 0.0064999913
0.0269312 -0.022634419 0.0064999913
0.032016076 -0.022693239 0.0064999913
0.008039034 -0.022556432 0.0064999908
0.033044335 -0.022540102 0.0064999913
-0.031319298 -0.022429826 0.0064999913
-0.031203922 -0.022409799 0.0064999918
-0.017520454 -0.022462375 0.0064999918
-0.0052607181 -0.022452168 0.0064999913
0.0053413864 -0.02243121 0.0064999913
0.027120436 -0.022486778 0.0064999913
-0.035850182 -0.022326507 0.0064999918
-0.029145535 -0.022369828 0.0064999908
-0.015107001 -0.022334903 0.0064999918
-0.012801097 -0.022332454 0.0064999913
0.024165083 -0.022326738 0.0064999913
-0.03486076 -0.022188809 0.0064999918
-0.027256034 -0.022122364 0.0064999913
-0.016511556 -0.022143012 0.0064999913
-0.015380863 -0.022147214 0.0064999918
0.006405212 -0.022114241 0.0064999908
0.026888832 -0.022136729 0.0064999908
-0.034538828 -0.022094719 0.0064999913
-0.031520538 -0.022047866 0.0064999913
-0.0083503071 -0.022056442 0.0064999918
0.016204281 -0.022065677 0.0064999913
0.025406096 -0.022086227 0.0064999908
-0.030944813 -0.021967351 0.0064999913
-0.029620741 -0.021973427 0.0064999913
-0.016226601 -0.021927223 0.0064999908
-0.0084588304 -0.021958472 0.0064999913
-0.0081331274 -0.021949124 0.0064999913
0.0090896562 -0.021997595 0.0064999918
0.013731765 -0.021936072 0.0064999913
0.021976389 -0.021921178 0.0064999913
0.032919262 -0.02196998 0.0064999918
0.036597788 -0.02190569 0.0064999918
-0.029654965 -0.021821912 0.0064999913
-0.0017849205 -0.021869631 0.0064999913
0.0064910427 -0.021856179 0.0064999918
0.013785565 -0.021831539 0.0064999913
-0.031643324 -0.021715831 0.0064999918
-0.01714664 -0.021744587 0.0064999918
-0.016989162 -0.021738082 0.0064999913
-0.0077931397 -0.021782283 0.0064999913
0.014616454 -0.021705234 0.0064999918
0.015130484 -0.021703485 0.0064999918
0.015661865 -0.02176239 0.0064999913
0.021044668 -0.021737609 0.0064999913
0.037307754 -0.021715727 0.0064999913
-0.031022083 -0.021678772 0.0064999913
-0.015176775 -0.021637667 0.0064999913
0.0017528315 -0.021694556 0.0064999913
-0.022357063 -0.021548199 0.0064999913
-0.016266156 -0.021533638 0.0064999913
0.012851845 -0.021579925 0.0064999908
0.022314258 -0.02159917 0.0064999913
-0.036526252 -0.021403285 0.0064999913
-0.023564672 -0.021485772 0.0064999913
-0.018739566 -0.021425135 0.0064999913
-0.018122211 -0.02149348 0.0064999918
-0.0068945517 -0.021440644 0.0064999913
-0.0048227655 -0.021428376 0.0064999908
0.0021398948 -0.021489173 0.0064999918
0.023937864 -0.021455089 0.0064999918
0.02665282 -0.021414045 0.0064999913
0.032079838 -0.021436289 0.0064999908
0.032908153 -0.021486472 0.0064999908
0.033921666 -0.021421444 0.0064999913
0.037290879 -0.021434003 0.0064999913
-0.036860097 -0.021364134 0.0064999913
-0.026816491 -0.021383464 0.0064999918
-0.021657491 -0.021379832 0.0064999913
-0.0076674656 -0.021392616 0.0064999908
-0.0050510028 -0.021350976 0.0064999913
-7.9827791e-05 -0.021300668 0.0064999918
0.027047472 -0.021381278 0.0064999918
0.029722795 -0.021317171 0.0064999913
0.031403206 -0.021394372 0.0064999918
-0.03082817 -0.02126571 0.0064999913
-0.029485125 -0.021267157 0.0064999908
-0.015499138 -0.021266822 0.0064999913
0.01330877 -0.021257114 0.0064999913
0.014370798 -0.021224156 0.0064999913
-0.0078595653 -0.021151688 0.0064999913
0.014426663 -0.021184823 0.0064999908
0.014571754 -0.021133456 0.0064999918
0.033119686 -0.021040408 0.0064999908
0.0020318776 -0.020995667 0.0064999913
0.009990246 -0.020995814 0.0064999913
0.016307609 -0.020912126 0.0064999913
0.033054762 -0.020951809 0.0064999918
0.033889148 -0.02091429 0.0064999913
0.034727536 -0.020975703 0.0064999913
0.038068123 -0.020978183 0.0064999918
-0.032597989 -0.020877337 0.0064999913
-0.029644841 -0.020896014 0.0064999908
-0.016357319 -0.020828217 0.0064999913
0.0026591523 -0.020806341 0.0064999908
0.010028367 -0.020869665 0.0064999913
0.02570378 -0.02086927 0.0064999918
0.029901717 -0.020809356 0.0064999913
-0.038349152 -0.02072194 0.0064999913
-0.021862533 -0.020736391 0.0064999908
0.0062920921 -0.020730563 0.0064999908
0.025079554 -0.020750707 0.0064999913
0.031935919 -0.020767944 0.0064999908
-0.023439389 -0.020616846 0.0064999918
-0.023288444 -0.020604867 0.0064999918
-0.0072416132 -0.020660724 0.0064999913
0.0022093242 -0.020604555 0.0064999913
0.0060745766 -0.020687176 0.0064999913
0.024316717 -0.020690272 0.0064999913
0.027095489 -0.020656303 0.0064999908
0.035772122 -0.020660991 0.0064999908
0.037564851 -0.02067003 0.0064999918
-0.037794106 -0.020578051 0.0064999918
-0.032879233 -0.020584557 0.0064999913
-0.006525035 -0.020540413 0.0064999908
0.0076561589 -0.020502418 0.0064999913
0.015634336 -0.020590689 0.0064999918
0.026527211 -0.020553466 0.0064999913
0.03170155 -0.02053434 0.0064999918
0.035561949 -0.020507563 0.0064999913
-0.031523593 -0.020456694 0.0064999908
0.013950385 -0.020484122 0.0064999908
0.024172056 -0.02041062 0.0064999913
0.032209769 -0.020432878 0.0064999913
0.035069056 -0.020454044 0.0064999918
-0.037116688 -0.020321347 0.0064999908
-0.028723691 -0.020300355 0.0064999918
0.01000438 -0.020341162 0.0064999913
0.018587139 -0.020209866 0.0064999913
-0.027771605 -0.020115839 0.0064999913
-0.024401754 -0.02012806 0.0064999918
-0.011406686 -0.020135716 0.0064999918
-0.037020933 -0.020059368 0.0064999913
-0.024587745 -0.020023493 0.0064999918
0.031063372 -0.020013517 0.0064999913
0.035925381 -0.020002948 0.0064999913
-0.016833434 -0.019969832 0.0064999918
0.0140179 -0.019971672 0.0064999918
0.032492198 -0.019961916 0.0064999913
0.034681503 -0.01995614 0.0064999918
-0.038936511 -0.019856274 0.0064999913
-0.037408262 -0.019882295 0.0064999918
-0.0024967964 -0.019818014 0.0064999913
0.0025864511 -0.019800199 0.0064999913
0.0080143167 -0.019859334 0.0064999913
0.02596779 -0.019875254 0.0064999913
-0.038508639 -0.019782035 0.0064999913
-0.038486801 -0.019784484 0.0064999913
-0.030141896 -0.019734725 0.0064999908
-0.025033386 -0.019734591 0.0064999913
0.015689271 -0.019780019 0.0064999913
0.025808506 -0.019750718 0.0064999918
0.031862937 -0.019723359 0.0064999908
0.03428562 -0.01973008 0.0064999913
-0.0094979517 -0.019693516 0.0064999913
-0.0071935584 -0.019649647 0.0064999913
-0.0048275692 -0.019641083 0.0064999913
0.0063935481 -0.01968517 0.0064999908
0.017443471 -0.019689385 0.0064999913
0.023103278 -0.019646287 0.0064999908
0.027499903 -0.019679079 0.0064999918
-0.032365408 -0.019564947 0.0064999913
-0.0076466538 -0.019599948 0.0064999913
-0.0051418641 -0.019561088 0.0064999913
0.028020207 -0.019572061 0.0064999908
0.038767815 -0.019514412 0.0064999913
-0.024422416 -0.019457433 0.0064999913
-0.02270728 -0.019451767 0.0064999913
-0.011521687 -0.01949719 0.0064999908
-0.00058432389 -0.019425152 0.0064999918
0.0071062474 -0.019421935 0.0064999918
0.019771153 -0.019456843 0.0064999913
-0.037451111 -0.019331824 0.0064999913
-0.024065427 -0.019348018 0.0064999908
0.020498201 -0.019323133 0.0064999908
0.027254425 -0.019353086 0.0064999908
-0.030513011 -0.019257668 0.0064999918
-0.025913781 -0.01921187 0.0064999908
0.00067440717 -0.019244153 0.0064999913
0.020378271 -0.019274697 0.0064999913
0.03419311 -0.019231206 0.0064999913
-0.034607772 -0.019155279 0.0064999918
-0.019593123 -0.019191176 0.0064999913
-0.011505377 -0.019177023 0.0064999908
-0.0059612794 -0.019146487 0.0064999913
-0.0019782346 -0.019176038 0.0064999913
-0.034579746 -0.019038282 0.0064999908
0.018981867 -0.019053008 0.0064999913
0.019425571 -0.019047353 0.0064999908
0.032621324 -0.019029833 0.0064999913
-0.010590971 -0.018944997 0.0064999908
-0.0091502341 -0.018958379 0.0064999913
-0.0081590433 -0.018998627 0.0064999908
0.009799636 -0.018917883 0.0064999913
0.0152389 -0.018915555 0.0064999908
0.015990041 -0.018900145 0.0064999908
0.027977906 -0.018924469 0.0064999913
0.039153002 -0.018958429 0.0064999913
-0.032623935 -0.018803123 0.0064999913
-0.032181397 -0.018873019 0.0064999908
-0.031388208 -0.018877484 0.0064999913
-0.011462933 -0.018801451 0.0064999913
-0.0019530457 -0.018820051 0.0064999913
0.0052004009 -0.018863263 0.0064999908
0.010388956 -0.018879298 0.0064999913
0.018678837 -0.018864647 0.0064999908
0.024096631 -0.018824151 0.0064999908
0.031537425 -0.018830054 0.0064999913
0.035988826 -0.018840389 0.0064999913
0.025040528 -0.018738171 0.0064999913
0.026275948 -0.018781651 0.0064999913
-0.038304053 -0.018628959 0.0064999918
-0.03360093 -0.018676784 0.0064999918
-0.029554432 -0.018608043 0.0064999913
0.028128339 -0.018688446 0.0064999918
-0.034712322 -0.018532457 0.0064999918
-0.020917423 -0.018586855 0.0064999918
-0.013177982 -0.018539719 0.0064999913
0.0024371222 -0.018502498 0.0064999908
-0.0093824575 -0.018444967 0.0064999918
0.019398894 -0.018491274 0.0064999913
0.021568757 -0.018498389 0.0064999908
0.030707467 -0.01841414 0.0064999918
0.00024711608 -0.01836016 0.0064999913
0.0097705889 -0.018386653 0.0064999913
0.0099891676 -0.018383367 0.0064999908
0.019786146 -0.018327564 0.0064999908
0.032918517 -0.01839502 0.0064999913
0.033494622 -0.018356705 0.0064999913
0.0051625799 -0.018289085 0.0064999913
0.016878001 -0.018248688 0.0064999913
0.026815871 -0.018288827 0.0064999913
0.031048607 -0.018282972 0.0064999913
0.032268539 -0.018218396 0.0064999913
-0.03862264 -0.018105663 0.0064999908
-0.030138696 -0.018126849 0.0064999913
-0.018808756 -0.01813893 0.0064999908
-0.0015045614 -0.018100647 0.0064999918
0.028721623 -0.018165991 0.0064999913
0.032942608 -0.018136073 0.0064999913
-0.038826004 -0.018016446 0.0064999913
-0.031361457 -0.018090617 0.0064999913
-0.011574099 -0.018075813 0.0064999913
-0.0095349951 -0.018081822 0.0064999913
0.010134064 -0.018035879 0.0064999918
-0.020845557 -0.017920833 0.0064999913
-0.027211707 -0.017889963 0.0064999913
-0.020885088 -0.017846383 0.0064999918
-0.014387784 -0.017862976 0.0064999908
-0.010606308 -0.017833807 0.0064999918
-0.0091454778 -0.017835394 0.0064999908
0.034743648 -0.017836574 0.0064999913
-0.034844622 -0.017767765 0.0064999913
-0.033172507 -0.017793795 0.0064999908
-0.032363292 -0.017733783 0.0064999913
-0.015512692 -0.017795883 0.0064999913
0.01218728 -0.017704763 0.0064999908
0.02787777 -0.017718807 0.0064999913
0.028378539 -0.017730575 0.0064999913
0.029383685 -0.017728698 0.0064999913
0.031934902 -0.017721437 0.0064999918
0.034076985 -0.017766468 0.0064999913
0.035808902 -0.017694153 0.0064999918
-0.023460088 -0.017591836 0.0064999913
-0.022021528 -0.017593227 0.0064999913
-0.019773575 -0.017597765 0.0064999913
-0.018344093 -0.017505726 0.0064999908
-0.0014014421 -0.017555803 0.0064999918
0.036321513 -0.017528795 0.0064999918
0.0016049304 -0.017466828 0.0064999918
0.012947956 -0.017439578 0.0064999908
0.021686692 -0.017495815 0.0064999908
0.034084633 -0.017439082 0.0064999913
-0.023778573 -0.017395338 0.0064999913
0.0077375714 -0.017344162 0.0064999918
0.02137411 -0.01733537 0.0064999913
0.032204248 -0.017302072 0.0064999913
-0.035536788 -0.017221209 0.0064999908
-0.035216097 -0.017222207 0.0064999918
0.0047547636 -0.017250415 0.0064999913
0.009586148 -0.017268503 0.0064999913
0.0356653 -0.017225347 0.0064999918
-0.026248686 -0.017125223 0.0064999913
-0.025770824 -0.017148249 0.0064999918
0.0016185263 -0.0171542 0.0064999913
0.027613577 -0.017170748 0.0064999913
0.030932626 -0.017185463 0.0064999913
0.033077653 -0.017169487 0.0064999908
0.035645168 -0.017126473 0.0064999918
0.037773151 -0.017180162 0.0064999913
-0.038309015 -0.017053774 0.0064999913
-0.022463256 -0.017056594 0.0064999913
-0.0069800522 -0.017020501 0.0064999908
0.0021470161 -0.017069165 0.0064999908
0.019185001 -0.017092986 0.0064999913
-0.042187024 -0.016952753 0.0064436183
0.00088628952 -0.016908027 0.0064999913
0.013206247 -0.016980158 0.0064999913
0.02209107 -0.016913997 0.0064999913
0.031353619 -0.016950883 0.0064999913
0.034649804 -0.0169673 0.0064999913
-0.031887259 -0.016830388 0.0064999913
-0.011346295 -0.016892102 0.0064999908
-0.010501657 -0.016810972 0.0064999913
0.00056166697 -0.016897721 0.0064999918
0.0078763478 -0.016821986 0.0064999908
0.011861902 -0.016814411 0.0064999913
0.030191045 -0.016837288 0.0064999913
-0.03845042 -0.016754216 0.0064999913
-0.025599686 -0.016782623 0.0064999913
-0.019063555 -0.016762244 0.0064999913
0.021840146 -0.016758453 0.0064999913
0.039045587 -0.016725529 0.0064999908
0.039785236 -0.016732462 0.0064999908
-0.034478679 -0.016645391 0.0064999918
-0.023498695 -0.01669574 0.0064999918
0.011695197 -0.016627818 0.0064999918
0.014599992 -0.016648877 0.0064999918
-0.033017464 -0.01655017 0.0064999918
-0.023388347 -0.016587779 0.0064999913
-0.013794794 -0.016547896 0.0064999913
-0.010576867 -0.016543483 0.0064999918
-0.0084935697 -0.016513411 0.0064999913
-0.013278762 -0.016412089 0.0064999913
-0.0095959501 -0.016460139 0.0064999913
0.00040469773 -0.016400492 0.0064999913
0.004505171 -0.016445868 0.0064999908
0.0061004208 -0.016405908 0.0064999913
0.0072628469 -0.016424799 0.0064999908
0.020147605 -0.016433528 0.0064999913
0.033075981 -0.016443543 0.0064999913
0.039849989 -0.016425844 0.0064999908
-0.039466053 -0.016355533 0.0064999918
-0.024604931 -0.016375605 0.0064999913
-0.011974067 -0.016320832 0.0064999918
0.0077664549 -0.016332256 0.0064999913
0.027311962 -0.016360801 0.0064999913
0.031989112 -0.016366811 0.0064999908
-0.035472788 -0.016239697 0.0064999913
-0.016612101 -0.016206741 0.0064999913
-0.014287925 -0.016225839 0.0064999913
-0.0010641188 -0.016215835 0.0064999913
0.0045188693 -0.016232379 0.0064999913
-0.040733255 -0.016156854 0.0064999913
-0.019553643 -0.016128991 0.0064999908
-0.011540389 -0.016192321 0.0064999913
-0.0086512156 -0.016128832 0.0064999913
0.0049753268 -0.016163794 0.0064999913
0.027003245 -0.016125862 0.0064999913
-0.036068175 -0.016005386 0.0064999918
-0.031353723 -0.016049912 0.0064999913
-0.023088533 -0.016018063 0.0064999908
-0.0095151365 -0.016062472 0.0064999913
-0.008291143 -0.016061928 0.0064999913
0.015733311 -0.016072556 0.0064999913
0.018353518 -0.016043501 0.0064999908
