# .PCD v0.7 - Point Cloud Data file format
VERSION 0.7
FIELDS x y z
SIZE 4 4 4
TYPE F F F
COUNT 1 1 1
WIDTH 1234
HEIGHT 1
VIEWPOINT 0 0 0 1 0 0 0
POINTS 1234
DATA ascii
-0.02847347 0.0055829198 -0.0003234148
-0.027696177 0.005582721 -0.00036478043
-0.026889388 0.0055857426 0.00026381016
-0.026067782 0.0055902288 0.0011970401
-0.02524446 0.0055947248 0.0021322966
-0.024419498 0.0055992207 0.003067553
-0.023835205 0.0055792634 -0.0010840297
-0.023057416 0.0055792015 -0.0010969639
-0.022351015 0.0055721919 -0.0025551319
-0.021580569 0.0055715521 -0.0026881695
-0.020754784 0.0055761375 -0.0017343163
-0.019893687 0.005583833 -0.0001335144
-0.019067239 0.0055881236 0.00075912476
-0.018247686 0.0055916584 0.0014944077
-0.017447103 0.0055934107 0.0018589497
-0.016673546 0.0055927667 0.001725018
-0.015900221 0.0055921231 0.001591146
-0.015127141 0.0055914787 0.0014570355
-0.014354292 0.0055908347 0.0013230443
-0.013889063 0.0055651441 -0.004021287
-0.013121165 0.0055645057 -0.0041540861
-0.012323733 0.0055662226 -0.0037969351
-0.01133959 0.0055824569 -0.00041973591
-0.010493468 0.0055876202 0.00065439939
-0.0097220242 0.0055869757 0.00052034855
-0.0089508109 0.0055863322 0.00038641691
-0.0081797987 0.0055856905 0.00025290251
-0.0074090138 0.0055850493 0.00011956692
-0.0066384748 0.0055844071 -1.4007092e-05
-0.0061421879 0.0055643185 -0.0041929483
-0.005358573 0.0055648731 -0.0040776134
-0.0044793561 0.0055720275 -0.0025892854
-0.0036447868 0.005575954 -0.0017725229
-0.002909705 0.0055730701 -0.0023724437
-0.0021629408 0.0055710352 -0.0027957559
-0.0014064014 0.0055696927 -0.0030750632
-0.00063987076 0.0055690319 -0.0032124519
0.00013900548 0.0055691809 -0.0031814575
0.00092632324 0.0055698636 -0.0030394793
0.0015188605 0.0055582873 -0.0054476857
0.0022858158 0.0055578118 -0.0055465698
0.0033529922 0.0055757966 -0.0018052459
0.0041248947 0.005575439 -0.0018796325
0.0048919916 0.0055748005 -0.0020124912
0.0056588352 0.0055741603 -0.002145648
0.0064254254 0.005573519 -0.0022790432
0.0071918368 0.0055728811 -0.0024117827
0.0079580247 0.0055722436 -0.0025444031
0.0087239742 0.0055716056 -0.002677083
0.0094896853 0.0055709677 -0.0028098226
0.010255165 0.0055703293 -0.0029426217
0.011020429 0.0055696918 -0.0030751824
0.011785455 0.0055690543 -0.0032078028
0.012550265 0.0055684177 -0.0033402443
0.013314836 0.0055677807 -0.003472805
0.014079176 0.0055671432 -0.0036053658
0.014843293 0.0055665066 -0.0037378073
0.015607178 0.0055658701 -0.0038702488
0.01637084 0.0055652335 -0.0040026307
0.017134264 0.005564597 -0.0041350722
0.017897472 0.0055639613 -0.0042673349
0.018660448 0.0055633252 -0.0043995976
0.019423194 0.0055626896 -0.0045318604
0.020185731 0.0055620549 -0.0046638846
0.020554289 0.0055421703 -0.0088003874
0.021327667 0.0055422527 -0.0087832212
0.022267886 0.0055503482 -0.0070992112
0.023233518 0.0055595133 -0.0051925778
0.023994923 0.00555888 -0.0053243637
0.024756096 0.0055582463 -0.0054562092
0.025517046 0.005557613 -0.0055879354
0.026277766 0.0055569792 -0.0057197213
0.027038261 0.0055563464 -0.005851388
0.027798541 0.005555714 -0.005982995
0.028558582 0.0055550807 -0.0061146617
0.029318392 0.0055544483 -0.0062462687
0.029515751 0.0055289781 -0.011544704
0.030304588 0.0055298354 -0.011366367
0.031330988 0.005541008 -0.0090422034
0.032355376 0.0055519184 -0.0067725182
0.033114038 0.005551286 -0.0069041252
0.033872485 0.0055506537 -0.0070356131
0.034630716 0.0055500222 -0.0071669817
0.035388723 0.0055493908 -0.0072983503
0.035564974 0.0055246209 -0.012451172
0.036301941 0.0055233222 -0.0127213
0.037314236 0.0055333022 -0.010645211
0.038205564 0.0055382242 -0.0096212626
0.03892421 0.0055361167 -0.010059714
0.03964214 0.0055340114 -0.010497689
0.04035937 0.005531908 -0.010935247
0.040815949 0.0055195582 -0.013504267
0.041567527 0.0055189328 -0.013634443
0.04252024 0.0055261338 -0.0121364
0.043985493 0.005553016 -0.0065442324
-0.044805273 0.0063688392 0.00088006258
-0.044025481 0.0063687619 0.00086641312
-0.043116897 0.0063970662 0.0058486462
-0.042336024 0.0063962983 0.0057134628
-0.041555393 0.0063955295 0.0055781007
-0.040774975 0.0063947649 0.0054435134
-0.039994806 0.0063939979 0.0053085685
-0.039214872 0.006393231 0.0051735044
-0.03857277 0.0063672704 0.00060385466
-0.037822679 0.0063619632 -0.00033032894
-0.0368765 0.0063909274 0.0047680736
-0.036097519 0.006390159 0.0046328306
-0.03531877 0.0063893916 0.0044977069
-0.034540247 0.0063886251 0.0043628216
-0.033761956 0.0063878596 0.0042280555
-0.032983907 0.0063870936 0.0040932298
-0.032206085 0.0063863285 0.0039585233
-0.031428494 0.0063855639 0.003823936
-0.030812785 0.0063617066 -0.00037544966
-0.030039169 0.006360949 -0.00050878525
-0.029265232 0.0063602668 -0.00062888861
-0.028472688 0.0063621071 -0.00030493736
-0.027656507 0.0063669765 0.00055217743
-0.026839551 0.0063717528 0.0013929009
-0.02601685 0.0063770683 0.0023285747
-0.025216237 0.0063794474 0.0027472973
-0.024440758 0.0063786833 0.0026128292
-0.023846909 0.0063562854 -0.00132972
-0.023086905 0.0063541536 -0.0017049313
-0.022373307 0.0063467594 -0.0030065179
-0.021603271 0.0063460018 -0.0031398535
-0.020711105 0.00635884 -0.00088006258
-0.019837439 0.0063692261 0.00094813108
-0.019018911 0.0063733445 0.0016730428
-0.018245284 0.0063725836 0.0015391111
-0.01747188 0.0063718236 0.0014053583
-0.016698718 0.0063710632 0.0012714863
-0.015925776 0.0063703037 0.0011377931
-0.01515308 0.0063695428 0.001003921
-0.014380623 0.0063687824 0.0008699894
-0.013915624 0.0063384366 -0.0044714808
-0.01314811 0.0063376832 -0.0046041608
-0.012282554 0.0063461205 -0.0031189919
-0.011297256 0.0063653584 0.00026732683
-0.010521758 0.0063649854 0.00020170212
-0.0097507015 0.0063642249 6.7830086e-05
-0.0089798532 0.0063634664 -6.5684319e-05
-0.0082092173 0.0063627097 -0.0001989007
-0.0074388385 0.0063619511 -0.0003324151
-0.0069335923 0.0063386848 -0.0044278502
-0.0061675385 0.0063378927 -0.0045672059
-0.0053368062 0.0063424767 -0.0037603378
-0.0044128895 0.0063545643 -0.0016326904
-0.0035904124 0.0063581606 -0.0009996295
-0.0028213635 0.0063574072 -0.0011322498
-0.0020628646 0.0063558412 -0.0014079213
-0.0013074428 0.0063540735 -0.0017190576
-0.0005396679 0.0063532973 -0.0018556714
0.00023807585 0.0063532973 -0.0018556714
0.0010202527 0.0063536302 -0.00179708
0.0015002042 0.0063315053 -0.0056915879
0.0022435114 0.0063292217 -0.006093502
0.0033223554 0.0063513587 -0.002196908
0.0040893033 0.0063506048 -0.0023296475
0.0048560351 0.0063498518 -0.0024621487
0.0056225136 0.0063490979 -0.0025948882
0.0063887239 0.0063483408 -0.0027281642
0.007154718 0.006347585 -0.0028611422
0.0079205111 0.0063468316 -0.0029937625
0.0086860955 0.0063460795 -0.003126204
0.009451434 0.0063453265 -0.0032587051
0.010216542 0.0063445736 -0.0033912659
0.010981403 0.0063438201 -0.0035238862
0.011746056 0.0063430676 -0.0036563277
0.012510486 0.0063423156 -0.0037887096
0.013274677 0.0063415635 -0.0039210916
0.014038637 0.0063408115 -0.0040534735
0.014802389 0.0063400604 -0.0041856766
0.015565887 0.0063393083 -0.0043180585
0.016329169 0.0063385568 -0.0044503212
0.01709222 0.0063378057 -0.0045825243
0.017855048 0.006337055 -0.0047146678
0.018617645 0.0063363039 -0.0048468709
0.019380018 0.0063355542 -0.0049788952
0.019775033 0.0063134017 -0.008878231
0.020510457 0.0063113114 -0.0092461705
0.02132608 0.0063138502 -0.0087992549
0.022357032 0.0063285688 -0.0062084198
0.023188472 0.0063318051 -0.0056387782
0.023949482 0.0063310564 -0.0057706237
0.024710245 0.0063303062 -0.005902648
0.025470816 0.0063295583 -0.0060343146
0.026231155 0.00632881 -0.0061659813
0.026991285 0.0063280631 -0.0062974691
0.027751178 0.0063273157 -0.0064290166
0.028510846 0.0063265688 -0.0065605044
0.028712824 0.0062964819 -0.011856496
0.029467553 0.0062957369 -0.011987627
0.0302957 0.0062988061 -0.01144737
0.031436712 0.0063179024 -0.0080859661
0.032305799 0.006322837 -0.0072174072
0.03306409 0.00632209 -0.0073488355
0.033822164 0.0063213441 -0.0074802041
0.034580022 0.0063205981 -0.0076114535
0.035337657 0.006319853 -0.0077426434
0.035497576 0.0062897969 -0.013033211
0.036250412 0.0062890598 -0.013162911
0.037422024 0.0063085724 -0.0097283125
0.038365826 0.0063168681 -0.0082680583
0.039086975 0.0063144402 -0.0086954236
0.039805956 0.0063119447 -0.0091347098
0.040524215 0.0063094515 -0.0095735192
0.040762156 0.0062846136 -0.01394552
0.041513465 0.0062838797 -0.014074743
0.042639583 0.0063003735 -0.01117146
0.044093996 0.00633161 -0.0056731105
-0.044816218 0.0071459888 0.0004247427
-0.044033162 0.0071468623 0.00055795908
-0.043138474 0.0071760574 0.005011797
-0.042348217 0.0071776593 0.0052561164
-0.041567989 0.0071767704 0.0051205158
-0.040787965 0.0071758898 0.004986167
-0.04000818 0.0071750088 0.0048517585
-0.039228648 0.0071741226 0.0047165751
-0.038579263 0.0071457918 0.00039464235
-0.037831061 0.0071393168 -0.00059312582
-0.036891453 0.0071714693 0.0043118
-0.036112867 0.0071705831 0.0041766763
-0.03533452 0.007169697 0.0040414929
-0.034556393 0.0071688136 0.0039066672
-0.0337785 0.0071679302 0.0037719607
-0.033000842 0.0071670478 0.0036373138
-0.032377917 0.0071395268 -0.00056105852
-0.031604227 0.0071386527 -0.00069439411
-0.03083076 0.007137781 -0.00082737207
-0.030045275 0.0071388846 -0.00065904856
-0.029235899 0.007143714 7.7664852e-05
-0.028422471 0.0071489713 0.00087970495
-0.02760632 0.0071544279 0.0017121434
-0.026788652 0.0071598943 0.002546072
-0.026012409 0.0071591157 0.0024272799
-0.025237095 0.0071582338 0.0022927523
-0.024462007 0.0071573537 0.002158463
-0.02380738 0.0071399277 -0.00049990416
-0.023107879 0.0071291947 -0.0021373034
-0.022395596 0.007120538 -0.0034578443
-0.02162594 0.0071196659 -0.0035909414
-0.020677522 0.0071417415 -0.00022321939
-0.01981632 0.0071520819 0.0013542175
-0.019042842 0.0071512051 0.0012204647
-0.018269651 0.0071503222 0.0010858178
-0.017496638 0.0071494458 0.0009521246
-0.01672386 0.0071485694 0.00081843138
-0.015951313 0.0071476935 0.00068479776
-0.015477084 0.0071126861 -0.0046557188
-0.014709525 0.0071118134 -0.004788816
-0.013942163 0.0071109445 -0.0049213767
-0.013175026 0.007110077 -0.0050537586
-0.012241121 0.0071272305 -0.0024369359
-0.011320919 0.0071424395 -0.00011670589
-0.010550015 0.0071415631 -0.00025045872
-0.0097793266 0.0071406881 -0.00038391352
-0.0090088509 0.0071398155 -0.00051707029
-0.0082386322 0.0071389396 -0.0006506443
-0.0074686296 0.0071380665 -0.00078386068
-0.0069688596 0.0071107224 -0.0049552917
-0.0061739646 0.0071126441 -0.0046620965
-0.0052714013 0.007124804 -0.0028070807
-0.0043909773 0.0071345693 -0.0013173223
-0.0036220998 0.0071336995 -0.0014500618
-0.0028534308 0.0071328315 -0.0015824437
-0.0020850748 0.0071319565 -0.0017159581
-0.0013169348 0.0071310834 -0.0018491745
-0.00054901093 0.0071302117 -0.0019821525
0.0002187416 0.0071293446 -0.0021144152
0.00098624825 0.0071284762 -0.0022468567
0.0015462711 0.0071098441 -0.0050892234
0.0022085458 0.0071002981 -0.0065455437
0.0030023977 0.0071019917 -0.0062871575
0.0040537566 0.0071249874 -0.0027790666
0.0048200861 0.0071241185 -0.0029116273
0.0055861846 0.0071232491 -0.0030442476
0.0063520819 0.0071223821 -0.0031765699
0.0071176514 0.007121508 -0.0033099055
0.007883057 0.0071206386 -0.0034425259
0.0086482465 0.0071197706 -0.0035749078
0.0094132125 0.0071189036 -0.0037072301
0.010177948 0.007118036 -0.0038395524
0.010942444 0.007117168 -0.0039719343
0.011706702 0.0071163001 -0.0041043758
0.012470745 0.0071154325 -0.0042366982
0.013234556 0.0071145659 -0.0043689609
0.013998151 0.0071136993 -0.0045011044
0.0147615 0.0071128327 -0.0046333075
0.015524633 0.0071119666 -0.004765451
0.016287543 0.0071111009 -0.0048975348
0.017050214 0.0071102348 -0.0050296187
0.017812662 0.0071093696 -0.005161643
0.018574886 0.0071085044 -0.0052936077
0.019336879 0.0071076397 -0.0054255724
0.019706674 0.0070804092 -0.0095796585
0.020489901 0.0070812246 -0.0094552636
0.021421939 0.0070918594 -0.0078328848
0.022382602 0.0071041826 -0.0059528947
0.02314347 0.0071033197 -0.0060845613
0.023904108 0.0071024564 -0.0062162876
0.024664529 0.007101594 -0.0063478351
0.025424704 0.0071007307 -0.0064795613
0.026184611 0.0070998645 -0.0066116452
0.026944347 0.0070990026 -0.0067431331
0.027703874 0.0070981421 -0.0068744421
0.028463162 0.0070972806 -0.0070058703
0.028665066 0.0070625837 -0.012298942
0.029438756 0.0070628896 -0.012252271
0.030400023 0.0070744003 -0.010496318
0.031498112 0.0070938412 -0.00753057
0.032256268 0.0070929802 -0.0076618791
0.033014193 0.0070921197 -0.0077931285
0.033771895 0.00709126 -0.0079243183
0.034529381 0.0070904004 -0.0080554485
0.034736596 0.0070581697 -0.012972355
0.035446472 0.0070548779 -0.013474464
0.036319666 0.0070608109 -0.012569368
0.037529886 0.0070854491 -0.0088107586
0.03831327 0.0070860982 -0.0087117553
0.039069422 0.0070852404 -0.0088425875
0.03982532 0.0070843827 -0.0089734793
0.039957516 0.0070497612 -0.014255047
0.040708601 0.0070489109 -0.014384747
0.041481994 0.0070492635 -0.014330983
0.04275918 0.0070763137 -0.010204434
0.044202812 0.0071117445 -0.004799366
-0.044046015 0.0079228822 4.2021275e-05
-0.043247126 0.0079284972 0.00079786777
-0.042360418 0.0079582185 0.0047985315
-0.041580565 0.0079572182 0.004663825
-0.040800944 0.007956218 0.0045292974
-0.04002155 0.0079552215 0.0043951273
-0.039242424 0.0079542156 0.0042597055
-0.038463511 0.0079532173 0.0041252375
-0.037837755 0.0079166051 -0.00080287457
-0.037077729 0.0079123806 -0.0013715029
-0.036128201 0.0079502128 0.0037209392
-0.035350244 0.0079492107 0.0035859942
-0.034572523 0.0079482077 0.0034509897
-0.033942401 0.0079170223 -0.00074678659
-0.033168647 0.0079160314 -0.00088018179
-0.032395106 0.0079150423 -0.0010131598
-0.031613156 0.0079157054 -0.0009239912
-0.030808434 0.007920593 -0.00026601553
-0.030000038 0.0079259425 0.00045400858
-0.029187612 0.0079317885 0.0012408495
-0.028371852 0.0079379771 0.0020738244
-0.02758342 0.0079392223 0.0022414923
-0.026808012 0.0079382267 0.0021074414
-0.026032854 0.0079372283 0.001973033
-0.02525793 0.0079362299 0.0018386841
-0.024483234 0.0079352325 0.0017044544
-0.023708764 0.0079342369 0.0015704036
-0.023118526 0.0079050604 -0.0023567677
-0.022417821 0.0078935372 -0.0039079785
-0.021648612 0.0078925407 -0.004042089
-0.020879529 0.00789156 -0.0041740537
-0.019839872 0.0079292655 0.00090134144
-0.019066785 0.0079282727 0.00076770782
-0.018293969 0.0079272753 0.00063335896
-0.01752137 0.0079262797 0.00049936771
-0.01674898 0.0079252878 0.00036585331
-0.016270246 0.0078856274 -0.0049726367
-0.01550284 0.0078846402 -0.0051056147
-0.01473565 0.007883654 -0.0052382946
-0.013968669 0.0078826714 -0.0053706169
-0.013167217 0.0078859944 -0.0049232841
-0.012199581 0.0079095457 -0.0017530322
-0.011348762 0.0079183457 -0.00056856871
-0.010578234 0.0079173539 -0.00070202351
-0.0098079219 0.0079163648 -0.00083518028
-0.0090378448 0.0079153748 -0.00096845627
-0.0082680024 0.0079143848 -0.0011016726
-0.0077640861 0.0078834835 -0.005261302
-0.0069873482 0.0078837015 -0.0052317977
-0.0061276443 0.0078930147 -0.0039782524
-0.0052058101 0.0079088174 -0.0018510818
-0.0044222623 0.0079094376 -0.0017675757
-0.0036537573 0.0079084542 -0.0018999577
-0.0028854907 0.0079074707 -0.0020324588
-0.002117537 0.0079064779 -0.002166152
-0.0013497695 0.0079054888 -0.00229913
-0.00058221817 0.0079045035 -0.0024318695
0.00018506497 0.0079035144 -0.0025650263
0.00095225871 0.0079025384 -0.0026963949
0.0017191395 0.007901554 -0.0028288364
0.0021799803 0.0078711994 -0.0069147944
0.0029441714 0.0078703314 -0.0070315599
0.0040182397 0.0078985877 -0.0032280684
0.0047841966 0.0078976043 -0.0033604503
0.0055499226 0.0078966217 -0.0034927726
0.0063154027 0.0078956364 -0.0036253929
0.0070806742 0.0078946538 -0.0037576556
0.0078456402 0.0078936648 -0.0038907528
0.0086104423 0.0078926813 -0.0040231347
0.0093750283 0.0078916997 -0.0041553378
0.010139376 0.0078907171 -0.0042875409
0.0109035 0.0078897346 -0.004419744
0.011667386 0.007888753 -0.0045519471
0.012431048 0.0078877714 -0.0046841502
0.013194472 0.0078867879 -0.0048163533
0.013957687 0.0078858081 -0.0049483776
0.014720671 0.0078848265 -0.0050804019
0.015483417 0.0078838458 -0.0052124262
0.016245954 0.0078828661 -0.0053443313
0.017008245 0.0078818854 -0.0054762959
0.017770313 0.0078809056 -0.0056082606
0.018532157 0.0078799259 -0.0057401061
0.018910371 0.0078494549 -0.0098417401
0.019671701 0.007848735 -0.0099385381
0.020534076 0.0078556631 -0.0090060234
0.021520555 0.0078717638 -0.0068387985
0.022338025 0.0078750364 -0.0063983202
0.023098521 0.0078740586 -0.0065298676
0.023858786 0.0078730807 -0.0066614151
0.024618812 0.0078721046 -0.0067929626
0.02537863 0.0078711277 -0.0069243908
0.026138209 0.0078701507 -0.0070558786
0.02689749 0.0078691691 -0.0071880221
0.027656615 0.0078681931 -0.0073194504
0.028415531 0.0078672171 -0.0074506998
0.028617337 0.0078279153 -0.012741089
0.029415786 0.0078299772 -0.012463391
0.030504696 0.0078516807 -0.009542048
0.031449005 0.0078633241 -0.0079747438
0.032206789 0.00786235 -0.0081058741
0.032964334 0.0078613758 -0.0082370639
0.033721663 0.0078604016 -0.0083681345
0.034478776 0.0078594284 -0.0084991455
0.034643173 0.0078201573 -0.013785183
0.035395421 0.0078191906 -0.0139153
0.036434561 0.0078365058 -0.011584699
0.0375048 0.007855529 -0.0090240836
0.038260825 0.0078545585 -0.0091546774
0.039016575 0.0078535862 -0.0092855096
0.039772131 0.0078526158 -0.0094161034
0.039904237 0.0078133978 -0.014695168
0.04065486 0.0078124297 -0.014825463
0.041603476 0.0078234524 -0.013341784
0.042871036 0.0078534791 -0.0092999935
0.04431206 0.007893431 -0.003922224
-0.044062465 0.0086968001 -0.00061845779
-0.043265898 0.0087025147 6.9797039e-05
-0.042372592 0.008737985 0.0043416619
-0.041593127 0.0087368712 0.0042075515
-0.040813908 0.0087357527 0.0040729046
-0.040034905 0.0087346397 0.0039389133
-0.039256193 0.0087335128 0.0038031936
-0.038477659 0.0087324008 0.0036691427
-0.037843339 0.0086938143 -0.00097799301
-0.037092563 0.0086867884 -0.0018241405
-0.036279269 0.0086955549 -0.00076836348
-0.035506219 0.0086941971 -0.00093191862
-0.034732398 0.0086930878 -0.0010655522
-0.03395864 0.0086920168 -0.0011944175
-0.033175062 0.0086931922 -0.001052916
-0.032372937 0.0086983638 -0.00043010712
-0.031568311 0.0087038372 0.00022906065
-0.030761026 0.0087096244 0.00092613697
-0.029952247 0.0087154685 0.0016299486
-0.029153805 0.0087189991 0.0020551085
-0.028378315 0.0087178871 0.0019212961
-0.027603045 0.0087167798 0.0017878413
-0.026828047 0.008715665 0.0016535521
-0.026053276 0.0087145502 0.0015193224
-0.025278743 0.0087134354 0.0013850927
-0.024504434 0.0087123234 0.0012511015
-0.023730356 0.0087112105 0.0011171103
-0.023067009 0.0086911842 -0.0012947321
-0.022379108 0.0086759962 -0.0031239986
-0.021671224 0.0086646378 -0.0044919848
-0.020902582 0.0086635333 -0.0046249032
-0.020134162 0.0086624306 -0.0047577024
-0.019365989 0.008661327 -0.0048906803
-0.01859808 0.0086602177 -0.0050243139
-0.017830346 0.0086591169 -0.0051568151
-0.017062824 0.0086580198 -0.0052890182
-0.01629559 0.0086569134 -0.0054221749
-0.01552856 0.0086558126 -0.0055548549
-0.014733978 0.0086586792 -0.0052095652
-0.01391558 0.0086648129 -0.0044707656
-0.013095863 0.0086709522 -0.0037314892
-0.012157977 0.0086930664 -0.0010681152
-0.011376563 0.0086934678 -0.0010197759
-0.010606419 0.0086923614 -0.0011530519
-0.0098364949 0.0086912559 -0.001286149
-0.0090668052 0.0086901505 -0.0014192462
-0.0085493326 0.0086569134 -0.0054222345
-0.0077919327 0.0086547453 -0.0056833029
-0.0069803037 0.0086593684 -0.0051264763
-0.0060630664 0.0086768195 -0.0030248761
-0.0052218325 0.0086846258 -0.0020846128
-0.0044535026 0.008683525 -0.0022171736
-0.0036853775 0.0086824279 -0.0023493767
-0.0029175207 0.0086813252 -0.0024821162
-0.0021499172 0.0086802207 -0.0026151538
-0.001382567 0.0086791143 -0.0027484894
-0.00061540306 0.0086780116 -0.0028811693
0.00015150756 0.008676908 -0.0030141473
0.00091827661 0.0086758137 -0.0031459332
0.0016848072 0.0086747184 -0.0032777786
0.0021618232 0.008642571 -0.0071495175
0.0029022172 0.0086390972 -0.0075678825
0.0039828345 0.008671416 -0.0036756396
0.004748337 0.0086703096 -0.003808856
0.005513683 0.0086692115 -0.0039410591
0.0062788129 0.0086681154 -0.004073143
0.0070436522 0.0086670127 -0.0042058825
0.0078082979 0.0086659146 -0.0043381453
0.0085726902 0.0086648129 -0.0044707656
0.0093368813 0.0086637158 -0.0046029687
0.010100849 0.0086626187 -0.0047350526
0.010864593 0.0086615235 -0.0048670769
0.011628114 0.0086604273 -0.0049990416
0.012391396 0.0086593311 -0.0051311255
0.013154447 0.008658234 -0.0052631497
0.013917267 0.0086571379 -0.005395174
0.014679864 0.0086560417 -0.0055271387
0.015442245 0.0086549483 -0.0056589246
0.016204394 0.0086538531 -0.0057907701
0.016966313 0.0086527597 -0.0059225559
0.017728016 0.0086516663 -0.0060542226
0.018119618 0.0086184833 -0.010050595
0.01886525 0.0086163385 -0.010308921
0.019672178 0.0086194538 -0.0099336505
0.020631455 0.0086353794 -0.0080156326
0.021533124 0.0086462032 -0.006712079
0.022293456 0.0086451108 -0.0068436861
0.023053601 0.008644022 -0.0069748163
0.023813501 0.0086429324 -0.0071061254
0.024573155 0.0086418409 -0.0072375536
0.0253326 0.0086407503 -0.0073688626
0.026091807 0.0086396597 -0.0075001717
0.026850797 0.0086385701 -0.0076314211
0.027609549 0.0086374804 -0.0077626705
0.027815804 0.0085935611 -0.013052166
0.028569654 0.0085924761 -0.013182819
0.029393807 0.0085967723 -0.012665391
0.030609637 0.0086306501 -0.0085853338
0.03139995 0.0086320359 -0.0084184408
0.032157354 0.0086309481 -0.0085494518
0.032914534 0.0086298604 -0.0086804628
0.033671491 0.0086287726 -0.0088114142
0.034428224 0.0086276857 -0.008942306
0.034592591 0.0085838204 -0.014225245
0.035379551 0.0085852565 -0.014052331
0.036549576 0.0086139301 -0.010598958
0.037452802 0.0086233336 -0.0094665289
0.038208432 0.0086222496 -0.0095970631
0.038963825 0.0086211646 -0.0097276568
0.039719 0.0086200815 -0.009858191
0.039851032 0.0085762702 -0.015134633
0.040601306 0.0085751889 -0.015264809
0.041722275 0.00859919 -0.012374282
0.042978406 0.0086319242 -0.0084318519
-0.044073768 0.0094714602 -0.0010721684
-0.043284625 0.009475274 -0.00065660477
-0.042384751 0.0095169581 0.0038855672
-0.041605681 0.0095157279 0.0037514567
-0.040826865 0.009514492 0.0036168098
-0.040048257 0.0095132645 0.003483057
-0.039269939 0.0095120193 0.0033473372
-0.038491815 0.0095107863 0.0032129884
-0.037848651 0.0094707962 -0.0011445284
-0.037100673 0.0094622886 -0.002071619
-0.036295496 0.009469822 -0.0012506843
-0.035520226 0.0094690239 -0.0013376474
-0.034733124 0.0094713327 -0.0010860562
-0.033934329 0.0094764894 -0.00052422285
-0.033132404 0.009482176 9.5486641e-05
-0.032328095 0.0094881766 0.00074934959
-0.031520933 0.0094945813 0.0014472008
-0.030723497 0.0094984602 0.0018698573
-0.029947959 0.0094972262 0.0017354488
-0.029172648 0.009495995 0.0016012788
-0.028397545 0.0094947685 0.0014676452
-0.027622674 0.0094935438 0.0013341904
-0.026848059 0.0094923135 0.0012001395
-0.026073683 0.0094910823 0.0010659695
-0.025299534 0.0094898539 0.00093203783
-0.024525616 0.0094886245 0.00079810619
-0.023751929 0.0094873961 0.00066423416
-0.022978462 0.0094861705 0.00053071976
-0.022378784 0.0094526904 -0.0031174421
-0.021635134 0.0094466666 -0.0037738681
-0.020925552 0.0094347335 -0.005074203
-0.020157564 0.0094335079 -0.0052077174
-0.019389722 0.0094322981 -0.0053395629
-0.018622212 0.0094310706 -0.0054732561
-0.017854869 0.0094298553 -0.0056057572
-0.01708775 0.0094286399 -0.0057381392
-0.016299743 0.0094308639 -0.0054958463
-0.015482917 0.0094376393 -0.0047575831
-0.014664728 0.0094444258 -0.0040180683
-0.013845202 0.0094512189 -0.0032778382
-0.013024323 0.0094580213 -0.0025365949
-0.012174346 0.0094690248 -0.0013375878
-0.011404339 0.0094678048 -0.0014705062
-0.010634575 0.0094665838 -0.0016036034
-0.0098650344 0.0094653638 -0.0017365217
-0.0090957321 0.0094641428 -0.0018695593
-0.0085896179 0.0094258618 -0.0060409307
-0.0078028589 0.0094276238 -0.0058488846
-0.0069180652 0.009442796 -0.0041956306
-0.0060208365 0.0094592618 -0.0024014115
-0.0052526779 0.0094580436 -0.0025341511
-0.0044847131 0.0094568301 -0.0026663542
-0.0037169829 0.0094556166 -0.0027986169
-0.0029495135 0.0094543993 -0.0029312968
-0.0021823421 0.0094531737 -0.0030648112
-0.0014153346 0.0094519565 -0.0031974912
-0.00064855069 0.0094507402 -0.0033299923
0.00011798739 0.009449522 -0.0034627318
0.00088434666 0.0094483113 -0.0035946965
0.0016505048 0.0094471034 -0.0037263036
0.0022214428 0.0094227614 -0.0063787699
0.0028671771 0.0094077373 -0.0080158114
0.0036572218 0.009409789 -0.0077922344
0.0047125742 0.0094422419 -0.0042560101
0.0054774731 0.0094410218 -0.0043889284
0.0062422156 0.0094398102 -0.0045209527
0.0070066974 0.0094385957 -0.0046533346
0.007770963 0.0094373832 -0.0047854781
0.0085349828 0.0094361687 -0.0049178004
0.0092987791 0.0094349552 -0.0050500631
0.010062367 0.0094337435 -0.0051820874
0.010825723 0.0094325319 -0.0053140521
0.011588871 0.009431323 -0.005445838
0.012351781 0.0094301123 -0.0055776834
0.01311446 0.0094289025 -0.0057095289
0.0138769 0.0094276918 -0.005841434
0.014639117 0.009426482 -0.0059732795
0.015401118 0.0094252732 -0.0061050057
0.016162887 0.0094240643 -0.006236732
0.016924426 0.0094228564 -0.0063683987
0.017685749 0.0094216494 -0.0064999461
0.018062606 0.0093835965 -0.010646343
0.018853761 0.0093856016 -0.010427892
0.019768156 0.0093991756 -0.0089488029
0.020728804 0.0094168251 -0.0070255995
0.021488987 0.0094156191 -0.0071570277
0.022248954 0.0094144139 -0.0072883368
0.023008674 0.0094132069 -0.0074198842
0.023768194 0.0094120027 -0.007551074
0.02452749 0.0094107985 -0.0076822639
0.025286563 0.0094095962 -0.0078133345
0.026045412 0.0094083939 -0.0079443455
0.02680403 0.0094071906 -0.0080754161
0.027562425 0.0094059873 -0.0082064867
0.027768575 0.0093574701 -0.013493299
0.028522268 0.0093562901 -0.013621807
0.029480882 0.0093724113 -0.011865139
0.030593641 0.0094011733 -0.0087311268
0.03135094 0.0093999747 -0.0088617206
0.032107979 0.0093987742 -0.0089925528
0.032864794 0.0093975728 -0.009123385
0.033621371 0.0093963724 -0.0092542171
0.033819973 0.0093502952 -0.014275074
0.034542054 0.009346717 -0.014664948
0.03549163 0.0093612224 -0.013084412
0.03664536 0.0093915658 -0.0097779632
0.037400842 0.0093903681 -0.0099084973
0.038156085 0.0093891695 -0.010039091
0.038911104 0.0093879718 -0.010169566
0.03904774 0.0093395701 -0.015443802
0.039797962 0.0093383836 -0.015573084
0.04061608 0.0093423259 -0.015143514
0.041840807 0.0093765976 -0.011409044
0.04308866 0.0094121015 -0.0075402856
-0.044085056 0.010245333 -0.0015253425
-0.043303289 0.01024679 -0.0013804436
-0.042396881 0.010295146 0.0034305453
-0.041618213 0.010293799 0.0032964349
-0.040829204 0.010296191 0.0035344958
-0.040036175 0.01029982 0.0038955808
-0.038505912 0.010288392 0.0027586222
-0.037746187 0.010281445 0.0020674467
-0.03710546 0.010238376 -0.0022175908
-0.036349736 0.010231893 -0.0028625727
-0.035488792 0.010256371 -0.00042718649
-0.03469006 0.010261977 0.00013053417
-0.033889808 0.010267734 0.0007032156
-0.033088326 0.010273552 0.0012820959
-0.03229253 0.0102776 0.0016848445
-0.03151691 0.010276251 0.0015506744
-0.03074152 0.010274904 0.0014166236
-0.029966403 0.010273547 0.0012816191
-0.029191468 0.010272203 0.0011479259
-0.02841673 0.010270868 0.0010151267
-0.027642276 0.010269521 0.00088107586
-0.026868057 0.010268174 0.00074708462
-0.026094064 0.010266828 0.00061315298
-0.025320306 0.010265483 0.00047934055
-0.024546769 0.01026414 0.00034570694
-0.023773473 0.010262796 0.00021195412
-0.023000397 0.010261454 7.8499317e-05
-0.022286069 0.010248203 -0.0012398958
-0.021643747 0.01022101 -0.003945291
-0.020889442 0.010216762 -0.0043679476
-0.020123586 0.010214888 -0.0045543313
-0.019375261 0.010209746 -0.0050660372
-0.018611189 0.010207714 -0.0052681565
-0.017833035 0.010208338 -0.0052060485
-0.017040528 0.010211542 -0.0048872828
-0.016232595 0.010217397 -0.0043047667
-0.01541464 0.010224833 -0.0035649538
-0.014595315 0.010232282 -0.0028238297
-0.013774633 0.010239742 -0.0020816922
-0.012971524 0.010244033 -0.0016546845
-0.012201689 0.010242696 -0.0017877817
-0.011432085 0.010241359 -0.0019208193
-0.010662701 0.010240023 -0.002053678
-0.0098935552 0.010238688 -0.0021865964
-0.0093812607 0.0101972 -0.006314218
-0.0086111128 0.010196629 -0.0063710213
-0.0077705942 0.010206792 -0.0053599477
-0.0068543367 0.010228074 -0.0032424927
-0.006051261 0.010232014 -0.0028505921
-0.0052834749 0.010230682 -0.0029830337
-0.0045158863 0.010229356 -0.0031149983
-0.0037485659 0.010228024 -0.0032474995
-0.0029815212 0.010226686 -0.0033806562
-0.0022146925 0.010225351 -0.0035134554
-0.001448065 0.010224019 -0.0036459565
-0.00068166107 0.010222688 -0.0037783384
8.4489584e-05 0.010221356 -0.0039109588
0.00085046142 0.010220029 -0.0040429235
0.0016162395 0.010218708 -0.0041743517
0.002381742 0.010217381 -0.0043064356
0.0028389245 0.010176466 -0.0083770156
0.0036003068 0.010175113 -0.0085117221
0.004676789 0.01021339 -0.0047034621
0.0054413602 0.010212061 -0.0048356652
0.0062056631 0.010210728 -0.004968226
0.0069698244 0.010209407 -0.0050997734
0.0077336505 0.010208073 -0.0052324533
0.0084973201 0.010206747 -0.0053643584
0.009260729 0.010205418 -0.0054965615
0.010023937 0.010204093 -0.0056284666
0.010786906 0.010202766 -0.0057604313
0.011549659 0.010201441 -0.0058922768
0.012312204 0.01020012 -0.0060237646
0.013074495 0.010198794 -0.0061556101
0.01383657 0.010197471 -0.0062872767
0.014598414 0.010196147 -0.0064189434
0.015360028 0.010194824 -0.0065506101
0.01612141 0.010193501 -0.0066822767
0.016882576 0.010192178 -0.0068138242
0.017262705 0.010150494 -0.010961056
0.018044353 0.01015174 -0.010837078
0.018922649 0.010163022 -0.0097146034
0.019866899 0.010180904 -0.0079355836
0.020685054 0.010185577 -0.0074705482
0.021444879 0.010184259 -0.0076016784
0.022204459 0.010182939 -0.0077329874
0.022963837 0.010181622 -0.007864058
0.023722939 0.0101803 -0.0079955459
0.024481855 0.010178983 -0.0081266165
0.025240555 0.010177667 -0.0082575679
0.025999025 0.01017635 -0.0083885193
0.02675727 0.010175035 -0.0085194111
0.027515292 0.010173719 -0.0086503029
0.02772139 0.010120613 -0.013933957
0.028495707 0.010121277 -0.013867915
0.029564194 0.010149102 -0.011099517
0.030545019 0.010168452 -0.0091744065
0.031301901 0.010167137 -0.0093052387
0.032058574 0.010165824 -0.0094358921
0.032815069 0.010164515 -0.0095660686
0.033571288 0.010163202 -0.009696722
0.03374023 0.010110157 -0.014974236
0.034491517 0.010108844 -0.015104771
0.035584182 0.010137184 -0.012285292
0.036593825 0.010157946 -0.010219693
0.037348926 0.010156633 -0.010350168
0.038103797 0.010155322 -0.010480642
0.038858451 0.010154013 -0.010610938
0.038995005 0.010101026 -0.015882611
0.039744772 0.010099721 -0.01601243
0.040736847 0.01011841 -0.014153063
0.041959815 0.010155732 -0.010439932
0.043212891 0.010194973 -0.0065357089
-0.043322146 0.011016959 -0.002111733
-0.042524885 0.01102505 -0.0013712049
-0.04163073 0.011071077 0.0028417706
-0.037742913 0.01106374 0.0021701455
-0.037109725 0.01101438 -0.002347827
-0.036361955 0.011004788 -0.0032257438
-0.03544683 0.011048644 0.00078839064
-0.034646545 0.011054887 0.0013598204
-0.033860937 0.011056409 0.0014992356
-0.033085227 0.011054949 0.0013655424
-0.032309752 0.011053488 0.0012317896
-0.031534523 0.011052024 0.0010977983
-0.030759528 0.01105056 0.00096380711
-0.029984817 0.011049083 0.00082856417
-0.029210221 0.011047637 0.00069624186
-0.028435923 0.011046174 0.00056236982
-0.02766186 0.011044711 0.00042843819
-0.026888024 0.01104325 0.00029468536
-0.026114423 0.011041788 0.00016093254
-0.025341049 0.011040328 2.7239323e-05
-0.02456791 0.011038868 -0.00010639429
-0.023795001 0.011037408 -0.0002399683
-0.02302232 0.011035951 -0.0003734231
-0.022249863 0.011034494 -0.00050669909
-0.021588787 0.011008875 -0.002851665
-0.020903435 0.01098932 -0.0046416521
-0.020144068 0.01098597 -0.0049481392
-0.019300032 0.011000226 -0.0036433339
-0.01853792 0.010997366 -0.0039051175
-0.017761324 0.010997495 -0.0038933158
-0.016970284 0.011000463 -0.0036216378
-0.016163979 0.011006298 -0.0030875802
-0.015346199 0.011014143 -0.0023694634
-0.01453802 0.01101995 -0.0018380284
-0.013768125 0.011018492 -0.001971364
-0.012998465 0.011017036 -0.0021046996
-0.012229022 0.011015583 -0.0022377372
-0.011459801 0.011014131 -0.0023705959
-0.010690801 0.011012681 -0.0025033355
-0.010156423 0.010970819 -0.0063350201
-0.0094117373 0.010965862 -0.006788671
-0.0086125806 0.010970179 -0.0063936114
-0.0077080876 0.01099182 -0.0044127107
-0.0068492815 0.011005431 -0.0031668544
-0.0060816519 0.011003985 -0.0032992363
-0.0053142384 0.011002541 -0.0034314394
-0.0045470484 0.011001099 -0.0035634637
-0.0037801154 0.010999652 -0.0036959052
-0.0030134618 0.010998198 -0.0038290024
-0.0022469983 0.01099675 -0.0039615035
-0.0014807656 0.010995302 -0.0040940046
-0.00071474165 0.010993858 -0.0042262077
5.1021576e-05 0.01099241 -0.0043587685
0.00081659108 0.010990967 -0.0044908524
0.0015820116 0.010989536 -0.0046218634
0.0023471266 0.010988093 -0.0047538877
0.0028212667 0.010946045 -0.0086026788
0.0035587251 0.010941294 -0.0090374351
0.0046410486 0.01098376 -0.0051504374
0.0054051727 0.010982309 -0.0052832365
0.0061692074 0.010980877 -0.0054143667
0.0069328994 0.01097943 -0.0055468082
0.0076964349 0.010977993 -0.0056783557
0.0084596649 0.010976546 -0.0058108568
0.009222731 0.010975108 -0.0059424639
0.0099855363 0.010973665 -0.0060745478
0.010748133 0.010972225 -0.006206274
0.011510506 0.010970787 -0.0063379407
0.012272649 0.010969348 -0.006469667
0.013034582 0.010967912 -0.0066010952
0.013796277 0.010966475 -0.0067326427
0.014557749 0.010965037 -0.0068641901
0.01531899 0.010963601 -0.0069956779
0.01608 0.010962165 -0.0071271658
0.016463645 0.010916875 -0.011272609
0.017242692 0.010917974 -0.011172056
0.018109635 0.010929085 -0.010154963
0.019026272 0.010945618 -0.0086416602
0.01988171 0.010954993 -0.0077835917
0.020641372 0.01095356 -0.0079147816
0.021400802 0.010952125 -0.008046031
0.022160016 0.010950694 -0.0081771016
0.022919014 0.010949263 -0.008308053
0.023677774 0.010947831 -0.0084391236
0.024436288 0.010946398 -0.0085703135
0.0251946 0.010944967 -0.0087012649
0.025952689 0.010943538 -0.0088321567
0.02671057 0.010942109 -0.0089628696
0.027468212 0.01094068 -0.0090936422
0.027674206 0.010882984 -0.014374673
0.02846922 0.010885839 -0.014113307
0.029647648 0.010927144 -0.010332584
0.030496515 0.010934967 -0.0096166134
0.031253017 0.010933538 -0.009747386
0.032009311 0.010932111 -0.0098779798
0.032765374 0.010930684 -0.010008574
0.033521213 0.010929258 -0.010139167
0.033690095 0.010871631 -0.015413821
0.034441046 0.01087021 -0.015543878
0.035673462 0.010914234 -0.011514366
0.036542416 0.010923564 -0.01066035
0.03729713 0.010922139 -0.010790765
0.03805162 0.010920715 -0.01092118
0.038192652 0.010863133 -0.016191661
0.038942315 0.010861719 -0.016321063
0.039728627 0.010863633 -0.016145885
0.040857546 0.01089622 -0.013163149
0.042079076 0.010936582 -0.0094687343
0.04333742 0.010979626 -0.0055288672
-0.043333828 0.011789133 -0.0025647879
-0.042546019 0.011793861 -0.0021640658
-0.041643258 0.011847557 0.0023866892
-0.037757397 0.011839642 0.0017159581
-0.037105404 0.01179325 -0.0022158623
-0.036365412 0.011780123 -0.003328383
-0.035608634 0.011773396 -0.0038985014
-0.034652926 0.011833313 0.0011795759
-0.033877376 0.011831737 0.0010460019
-0.033102058 0.011830161 0.0009124279
-0.032326981 0.011828583 0.00077861547
-0.031552121 0.01182701 0.00064533949
-0.030777518 0.011825429 0.00051140785
-0.030003175 0.011823841 0.00037682056
-0.029229 0.011822273 0.0002438426
-0.028455097 0.011820693 0.00010997057
-0.027681418 0.011819116 -2.3663044e-05
-0.026907973 0.01181754 -0.00015729666
-0.026134759 0.011815963 -0.00029087067
-0.025361773 0.011814388 -0.00042438507
-0.024589021 0.011812813 -0.00055789948
-0.0238165 0.011811238 -0.00069135427
-0.023044214 0.011809663 -0.00082480907
-0.022272144 0.011808093 -0.00095790625
-0.021500308 0.011806522 -0.001091063
-0.020867858 0.011772837 -0.0039458275
-0.020159781 0.011757446 -0.0052503347
-0.019399725 0.011754161 -0.0055286884
-0.018463083 0.011789746 -0.0025128126
-0.017688312 0.011789228 -0.0025567412
-0.016899075 0.011791802 -0.0023385882
-0.016103953 0.011795528 -0.0020228028
-0.015333906 0.01179397 -0.0021547079
-0.014564171 0.011792399 -0.0022879839
-0.013794661 0.011790828 -0.0024211407
-0.013025384 0.011789257 -0.0025542974
-0.012256328 0.011787687 -0.0026872754
-0.011487484 0.011786123 -0.0028198957
-0.010718875 0.011784557 -0.0029525757
-0.010205876 0.011735439 -0.0071154237
-0.0094263144 0.011736616 -0.0070155859
-0.0085594095 0.011753591 -0.0055770278
-0.007646732 0.0117783 -0.0034828782
-0.0068792626 0.011776738 -0.0036152601
-0.0061120167 0.011775178 -0.0037475228
-0.0053449683 0.011773623 -0.0038793087
-0.0045781843 0.011772062 -0.0040115714
-0.0038116351 0.011770501 -0.0041438937
-0.0030453205 0.011768939 -0.0042762756
-0.0022792667 0.011767372 -0.0044090152
-0.0015134215 0.011765809 -0.0045415163
-0.00074778497 0.01176425 -0.0046736598
1.7672777e-05 0.011762699 -0.004805088
0.0007827878 0.011761131 -0.0049380064
0.0015478209 0.011759585 -0.0050690174
0.0023125485 0.011758029 -0.0052009225
0.0028946549 0.011728959 -0.0076645613
0.0035236478 0.011707528 -0.0094809532
0.0043102577 0.011709819 -0.0092867613
0.0053690895 0.011751791 -0.0057295561
0.0061326697 0.011750234 -0.0058614612
0.006896086 0.011748689 -0.0059924722
0.0076592043 0.011747131 -0.0061243773
0.0084220693 0.011745573 -0.0062565804
0.0091847628 0.011744021 -0.0063880086
0.0099471807 0.011742464 -0.0065200329
0.010709397 0.011740911 -0.0066516995
0.011471391 0.011739358 -0.006783247
0.01223316 0.011737806 -0.0069147944
0.012994699 0.011736255 -0.0070462823
0.013756029 0.011734705 -0.0071775913
0.014517121 0.011733155 -0.0073090196
0.014935575 0.011687789 -0.011153817
0.015665255 0.011682727 -0.011582792
0.016443782 0.011683892 -0.011484027
0.017296977 0.011694328 -0.010599613
0.018211916 0.011712186 -0.0090861917
0.019078933 0.011723864 -0.0080963969
0.01983846 0.011722319 -0.0082274079
0.020597741 0.011720772 -0.0083584785
0.021356791 0.011719223 -0.0084896684
0.022115611 0.011717677 -0.0086207986
0.022874244 0.011716134 -0.0087515712
0.023632638 0.01171459 -0.0088824034
0.024390794 0.011713046 -0.0090132952
0.025148712 0.0117115 -0.0091443062
0.025906429 0.011709956 -0.0092750788
0.026663899 0.011708412 -0.0094059706
0.026874453 0.011646125 -0.014684975
0.027627163 0.011644602 -0.014814019
0.02846352 0.011652246 -0.014166117
0.029691599 0.011702244 -0.0099287033
0.030447975 0.011700706 -0.010059118
0.031204194 0.011699174 -0.010188997
0.031960092 0.011697631 -0.01031965
0.032715805 0.011696095 -0.010449946
0.032919779 0.011637064 -0.015452862
0.03364002 0.011632345 -0.015852809
0.03440427 0.011632215 -0.015863776
0.035736345 0.011689941 -0.010971367
0.036490932 0.011688406 -0.011101544
0.037245274 0.011686868 -0.011231899
0.037999392 0.01168533 -0.011362195
0.038140401 0.011623179 -0.016629636
0.038889676 0.011621651 -0.016759098
0.039857537 0.011641451 -0.015080988
0.040978521 0.011675789 -0.012170911
0.042198606 0.011719155 -0.0084953904
-0.043307934 0.012578983 -0.0015605688
-0.042568602 0.012560599 -0.003011167
-0.041770678 0.012570353 -0.0022414923
-0.037771888 0.012614752 0.0012618303
-0.036995776 0.012613067 0.001128912
-0.036368877 0.012555273 -0.0034314394
-0.035624187 0.012543646 -0.0043489337
-0.034668963 0.012607968 0.00072658062
-0.033893816 0.012606272 0.00059276819
-0.033118878 0.012604586 0.00045967102
-0.032344185 0.012602894 0.00032615662
-0.031569742 0.012601197 0.00019228458
-0.030779667 0.012604557 0.00045740604
-0.030021522 0.012597815 -7.4565411e-05
-0.029247768 0.012596122 -0.00020819902
-0.028474249 0.012594429 -0.00034177303
-0.027700957 0.012592737 -0.00047528744
-0.0269279 0.012591044 -0.00060880184
-0.026155077 0.012589353 -0.00074225664
-0.025382482 0.012587663 -0.00087565184
-0.024610117 0.012585972 -0.001009047
-0.023837987 0.012584283 -0.0011423826
-0.023066089 0.012582593 -0.0012757182
-0.022294402 0.012580909 -0.0014086366
-0.021522943 0.012579225 -0.0015414953
-0.020761698 0.012575067 -0.0018695593
-0.020127401 0.012540113 -0.004627645
-0.019416038 0.012524785 -0.0058372021
-0.018656515 0.012521309 -0.006111443
-0.017669182 0.012570797 -0.0022065043
-0.016899105 0.012569116 -0.0023391247
-0.016129259 0.012567436 -0.0024716854
-0.015359718 0.012565739 -0.0026055574
-0.014590293 0.012564069 -0.0027374029
-0.01382117 0.012562382 -0.0028705001
-0.013052274 0.012560697 -0.0030034184
-0.012283605 0.012559013 -0.0031362772
-0.011515144 0.012557334 -0.0032687783
-0.010992952 0.012505759 -0.0073383451
-0.010229938 0.012503772 -0.0074951649
-0.0094084404 0.012513377 -0.0067373514
-0.0084977224 0.012540088 -0.004629612
-0.0076762997 0.012548942 -0.0039309859
-0.0069092065 0.012547268 -0.0040631294
-0.0061423369 0.012545594 -0.0041951537
-0.0053756833 0.012543923 -0.0043269992
-0.0046092905 0.012542247 -0.0044592619
-0.0038431585 0.012540566 -0.0045919418
-0.0030772313 0.012538888 -0.0047242641
-0.0023115128 0.012537216 -0.0048562884
-0.0015460551 0.012535539 -0.0049886107
-0.00078080595 0.012533865 -0.0051206946
-1.578778e-05 0.01253219 -0.0052528381
0.00074901432 0.012530519 -0.0053847432
0.0015136525 0.012528858 -0.0055157542
0.0022780076 0.012527188 -0.0056474805
0.0030421317 0.012525518 -0.0057792664
0.0034956932 0.012474127 -0.0098343492
0.0042543337 0.012472205 -0.009986043
0.0053330883 0.012520505 -0.0061748624
0.0060962364 0.012518827 -0.0063072443
0.0068592578 0.012517165 -0.0064383745
0.0076220185 0.012515498 -0.006569922
0.0083845332 0.012513829 -0.0067015886
0.0091467798 0.012512155 -0.0068337321
0.0099088475 0.012510487 -0.0069653392
0.010670699 0.012508823 -0.0070967078
0.011432312 0.012507156 -0.0072281361
0.012193702 0.012505491 -0.0073595643
0.012954876 0.012503827 -0.0074908733
0.013715811 0.012502163 -0.0076221824
0.014121875 0.012451289 -0.011636436
0.014868259 0.012448154 -0.011883795
0.015652232 0.012450196 -0.011722744
0.016504534 0.012461415 -0.010837436
0.01739949 0.01247813 -0.0095185637
0.018276721 0.01249219 -0.0084090829
0.019036092 0.01249053 -0.0085400343
0.019795239 0.012488872 -0.0086709261
0.020554155 0.012487213 -0.0088017583
0.021312848 0.012485555 -0.0089325905
0.022071317 0.012483898 -0.0090634227
0.022829525 0.012482236 -0.0091945529
0.023587525 0.012480577 -0.0093254447
0.024345323 0.012478922 -0.0094560981
0.025102884 0.012477265 -0.0095868111
0.025860213 0.012475608 -0.0097175241
0.026617318 0.012473952 -0.0098482966
0.026827812 0.012407089 -0.015124142
0.027595595 0.012407282 -0.015108883
0.028560735 0.012430644 -0.013265491
0.029643558 0.012467338 -0.010370135
0.030399539 0.012465682 -0.010500729
0.031155303 0.012464029 -0.010631204
0.031910859 0.012462378 -0.01076144
0.032666214 0.01246073 -0.010891497
0.032839589 0.012393944 -0.016161382
0.033590049 0.012392301 -0.016290963
0.034508862 0.012409248 -0.014953732
0.035685286 0.01245413 -0.011412323
0.036439493 0.012452481 -0.01154238
0.03719347 0.012450832 -0.011672497
0.037339017 0.012384098 -0.016938269
0.03808818 0.012382462 -0.017067373
0.03885188 0.012382384 -0.017073512
0.039986759 0.012421166 -0.01401341
0.0411072 0.012457891 -0.011115491
0.042318396 0.012503459 -0.0075198412
-0.043171607 0.013428613 0.0037267804
-0.042584315 0.013329349 -0.0036005378
-0.04179398 0.013336295 -0.003087759
-0.040891394 0.013396346 0.0013449788
-0.03701064 0.013387276 0.00067543983
-0.036371991 0.013330386 -0.0035239458
-0.035639696 0.013313123 -0.0047982335
-0.034869235 0.013311321 -0.0049312115
-0.033910204 0.013380034 0.00014090538
-0.033135686 0.013378222 7.1525574e-06
-0.032338761 0.013384477 0.00046885014
-0.029266514 0.013369189 -0.00065970421
-0.028493382 0.01336738 -0.00079315901
-0.027720481 0.013365573 -0.0009265542
-0.026947811 0.013363766 -0.0010598898
-0.026175369 0.013361963 -0.0011931062
-0.025403161 0.013360157 -0.0013263822
-0.024631184 0.013358352 -0.0014595985
-0.023859445 0.013356546 -0.0015928745
-0.02308793 0.013354743 -0.0017260313
-0.022316635 0.013352943 -0.0018588901
-0.021545574 0.013351142 -0.0019918084
-0.020774737 0.013349344 -0.002124548
-0.020026207 0.013341795 -0.0026817918
-0.019374907 0.013309585 -0.0050593615
-0.01866924 0.013292125 -0.0063481927
-0.017914202 0.013287468 -0.0066919327
-0.017136272 0.013288545 -0.0066124201
-0.016154587 0.013338554 -0.0029209852
-0.015385404 0.013336749 -0.0030542612
-0.014616385 0.013334959 -0.0031863451
-0.013847645 0.013333159 -0.0033192635
-0.01307914 0.013331358 -0.0034521818
-0.012310848 0.013329561 -0.0035848022
-0.011542778 0.013327767 -0.0037172437
-0.011026483 0.013271443 -0.0078749061
-0.010236681 0.013275146 -0.0076015592
-0.0093478449 0.013299632 -0.0057940483
-0.0084727742 0.013320598 -0.0042464733
-0.0077058412 0.013318807 -0.0043786168
-0.006939128 0.013317019 -0.0045106411
-0.0061726235 0.013315235 -0.0046423078
-0.005406376 0.013313446 -0.004774332
-0.0046403632 0.013311656 -0.0049064755
-0.0038746111 0.013309862 -0.0050389767
-0.0031090677 0.01330807 -0.0051712394
-0.002343744 0.013306282 -0.0053032041
-0.0015786588 0.013304492 -0.0054353476
-0.00081378222 0.013302704 -0.0055672526
-4.9136579e-05 0.013300918 -0.0056991577
0.00071532279 0.01329914 -0.0058303475
0.0014795288 0.013297357 -0.0059620142
0.0022434965 0.013295574 -0.0060936213
0.0030072406 0.013293791 -0.0062252283
0.0034785569 0.013241962 -0.010051012
0.0042130426 0.013235848 -0.010502279
0.0052970722 0.013288438 -0.0066203475
0.0060598403 0.013286646 -0.0067526698
0.006822437 0.013284864 -0.0068841577
0.0075848624 0.013283091 -0.0070150495
0.0083470047 0.013281308 -0.0071465969
0.0091089383 0.013279531 -0.0072778463
0.0098706037 0.013277746 -0.0074095726
0.010632023 0.01327596 -0.0075414181
0.011393271 0.013274183 -0.0076726079
0.012154289 0.013272405 -0.0078038573
0.012915082 0.013270628 -0.0079350471
0.01331459 0.01321478 -0.012057543
0.01407475 0.013213495 -0.012152374
0.014862977 0.013216357 -0.011941075
0.015729234 0.013230521 -0.010895491
0.016608842 0.013246348 -0.0097272396
0.017475083 0.013259973 -0.0087214708
0.018234305 0.0132582 -0.008852303
0.018993296 0.013256429 -0.0089831352
0.019752063 0.013254656 -0.0091139674
0.020510606 0.013252886 -0.0092446804
0.021268927 0.013251115 -0.0093753934
0.022027023 0.013249345 -0.0095060468
0.022784889 0.013247575 -0.0096367002
0.023542531 0.013245805 -0.0097672939
0.024299897 0.013244029 -0.0098983645
0.025057092 0.013242261 -0.010028958
0.025814049 0.013240492 -0.010159552
0.02602911 0.013169046 -0.015433311
0.026781119 0.013167278 -0.015563846
0.027577959 0.01317121 -0.015273631
0.028659739 0.013210841 -0.012348235
0.029595569 0.013231664 -0.01081115
0.030351266 0.013229908 -0.01094079
0.031106561 0.01322813 -0.01107204
0.03186173 0.013226365 -0.011202335
0.032088906 0.013160939 -0.016031742
0.032789998 0.013153248 -0.016599476
0.033540063 0.01315149 -0.016729176
0.03460782 0.013187208 -0.014092684
0.035634287 0.013217553 -0.011852741
0.036388122 0.013215793 -0.011982679
0.03714174 0.013214034 -0.012112558
0.03728725 0.013142738 -0.01737535
0.038036004 0.013140985 -0.017504692
0.038979843 0.01316125 -0.016008794
0.04011438 0.013202565 -0.012959123
0.041238546 0.013242135 -0.010038257
0.042438462 0.013289498 -0.0065420866
-0.043249547 0.01416764 0.00070381165
-0.04259634 0.014099061 -0.0040516853
-0.041817274 0.014100757 -0.0039339662
-0.041019499 0.014111851 -0.0031647086
-0.03702547 0.014160706 0.00022292137
-0.036250398 0.014158783 8.9585781e-05
-0.035643306 0.014086788 -0.0049027205
-0.034885149 0.014079891 -0.0053808093
-0.034115311 0.014077974 -0.0055137873
-0.033152446 0.014151087 -0.00044411421
-0.029251061 0.014153345 -0.0002874732
-0.028512489 0.014139552 -0.0012439489
-0.027739979 0.014137629 -0.0013772249
-0.026967697 0.014135709 -0.0015104413
-0.026195645 0.014133788 -0.0016435981
-0.025423829 0.014131867 -0.0017767549
-0.024652239 0.014129948 -0.001909852
-0.023880888 0.014128027 -0.0020430088
-0.023109756 0.01412611 -0.0021759868
-0.022338849 0.014124196 -0.0023087263
-0.021568172 0.014122281 -0.0024414659
