# .PCD v0.7 - Point Cloud Data file format
VERSION 0.7
FIELDS x y z
SIZE 4 4 4
TYPE F F F
COUNT 1 1 1
WIDTH 1421
HEIGHT 1
VIEWPOINT 0 0 0 1 0 0 0
POINTS 1421
DATA ascii
0.42726594 0.19077425 0.065772057
0.42726398 0.19141412 0.06578064
0.42721564 0.19205131 0.065725684
0.42720288 0.19269048 0.065719604
0.42715317 0.19332761 0.065662503
0.42711735 0.19396544 0.065624595
0.42705548 0.19460186 0.065550923
0.42698854 0.19523805 0.065470099
0.4269377 0.19587509 0.065411568
0.42682296 0.19650888 0.06526494
0.42675328 0.197145 0.065180421
0.42662561 0.19777831 0.065015793
0.42654032 0.19841382 0.064909816
0.42640114 0.19904675 0.064729571
0.42622662 0.19967818 0.06450057
0.42619789 0.20031653 0.064472437
0.42590815 0.20094296 0.064084768
0.42585254 0.20158026 0.06401968
0.42562091 0.2022098 0.063712001
0.42539996 0.20284005 0.063419104
0.42526358 0.20347416 0.063242674
0.42487675 0.20409794 0.062721252
0.42459077 0.20472634 0.06233871
0.42452133 0.20536382 0.062254548
0.42430872 0.20599569 0.061973095
0.42412257 0.20662881 0.06172812
0.42409796 0.20726828 0.061705709
0.42673659 0.17531691 0.063668966
0.42689544 0.1759714 0.063899755
0.42716479 0.17663373 0.064282894
0.42714709 0.17727461 0.064270139
0.4273684 0.17793274 0.064586997
0.42740017 0.17857687 0.064642549
0.42761016 0.17923349 0.064943671
0.4276101 0.179875 0.064955354
0.42780149 0.18117096 0.06524241
0.42792928 0.18182079 0.065430284
0.42785662 0.18245685 0.065341711
0.42788327 0.18309957 0.06539011
0.42786646 0.18373929 0.065378547
0.42790544 0.18438262 0.065443873
0.42788905 0.18502222 0.065432906
0.42790711 0.18566398 0.065469265
0.4278512 0.18630101 0.065403938
0.427872 0.18694274 0.065444112
0.42786855 0.18758292 0.065450907
0.42785496 0.18822241 0.065443754
0.42784441 0.188862 0.065440774
0.42782903 0.18950124 0.065431118
0.42782712 0.19014125 0.065440059
0.42778885 0.19077909 0.065398812
0.42776656 0.1914178 0.065379739
0.42772698 0.19205551 0.065336585
0.42769372 0.19269353 0.065302372
0.42762697 0.19332971 0.065221786
0.42758429 0.19396721 0.06517446
0.42751747 0.1946034 0.065093756
0.42744076 0.19523913 0.0649997
0.42737609 0.1958755 0.064921975
0.42724985 0.19650874 0.064759374
0.42719215 0.19714555 0.064691305
0.42705119 0.19777825 0.064508438
0.42694211 0.19841263 0.064369559
0.42678463 0.19904478 0.064164042
0.42663157 0.19967732 0.063964486
0.4265368 0.2003127 0.063845277
0.42637151 0.20094492 0.063628912
0.42618012 0.20157616 0.063376546
0.42597288 0.20220689 0.063102365
0.42567968 0.20283411 0.06270957
0.42548972 0.20346613 0.06245923
0.42516643 0.20409273 0.062024951
0.42491972 0.20472293 0.06169641
0.42492479 0.20536357 0.061714888
0.42478019 0.20599818 0.061527014
0.42445809 0.20662603 0.061094522
0.42429435 0.20726034 0.060880303
0.42718756 0.17531651 0.06319344
0.42738217 0.17597374 0.063473821
0.42764431 0.17663559 0.063847423
0.4276315 0.17727686 0.063841462
0.42785102 0.17793486 0.064156175
0.42782277 0.17857471 0.064128995
0.42811871 0.17923751 0.064549208
0.42807662 0.17987607 0.064502835
0.42825794 0.18053015 0.064764857
0.4283542 0.181178 0.064909458
0.42845672 0.18182608 0.065062642
0.42835599 0.18246028 0.064935327
0.42834204 0.18310028 0.064927697
0.4283098 0.18373905 0.064894915
0.42840189 0.18438587 0.065033674
0.42839003 0.18502575 0.065028906
0.42843658 0.18566933 0.065104842
0.42838317 0.18630645 0.065042853
0.42838973 0.18694735 0.065063596
0.42839134 0.18758783 0.065077424
0.42839187 0.18822815 0.065089703
0.42836952 0.18886702 0.06507051
0.42834944 0.18950601 0.065054417
0.42834055 0.19014558 0.065053821
0.42829221 0.19078282 0.064998746
0.42826879 0.19142148 0.064978004
0.42821962 0.19205864 0.064921856
0.42817843 0.19269624 0.064876437
0.42810106 0.19333185 0.064781308
0.42804801 0.19396885 0.064719796
0.42797607 0.1946048 0.064632058
0.42789596 0.19524036 0.064533114
0.42782879 0.19587663 0.064452052
0.42768848 0.1965092 0.0642699
0.4276228 0.19714566 0.064190865
0.42749119 0.19777887 0.064020872
0.42736804 0.19841264 0.063862562
0.42726606 0.19904752 0.06373322
0.42707914 0.19967845 0.063486934
0.42697501 0.20031343 0.063354731
0.42675149 0.20094305 0.063057899
0.42651361 0.20157228 0.06274128
0.42634875 0.20220503 0.062525272
0.42596895 0.20282863 0.062012792
0.42576903 0.20346037 0.061748385
0.42563516 0.20409507 0.061575294
0.4253965 0.20472561 0.061257482
0.42524344 0.20535985 0.061057925
0.42513764 0.20599616 0.060923576
0.42470944 0.20662002 0.060344219
0.42394447 0.20723155 0.059300303
0.42772633 0.17532277 0.06283915
0.42782164 0.17597258 0.062982559
0.42798811 0.17662741 0.063224554
0.42805511 0.17727463 0.063328862
0.42825752 0.17793147 0.06362021
0.42834592 0.17857978 0.063754201
0.42859995 0.1792396 0.064116955
0.42857975 0.17987974 0.064100862
0.4288097 0.18053715 0.064430237
0.4288097 0.18117842 0.064442158
0.42901242 0.18183334 0.064733982
0.42888194 0.18246546 0.064565539
0.42880541 0.18310131 0.064471483
0.42870557 0.18373567 0.06434536
0.42885643 0.18438639 0.06456542
0.42886972 0.18502794 0.06459558
0.42894936 0.18567365 0.064717412
0.42890865 0.18631159 0.064672828
0.42893416 0.18695362 0.064719796
0.42890865 0.18759242 0.064696193
0.42890739 0.18823265 0.064706326
0.4288944 0.18887205 0.064699888
0.42885804 0.18951005 0.064661503
0.42884755 0.19014955 0.064658642
0.42879289 0.19078641 0.064594865
0.42876476 0.19142479 0.064567685
0.42868197 0.1920601 0.064465046
0.42864674 0.19269805 0.064427972
0.42855984 0.19333319 0.064319611
0.42851061 0.1939704 0.064263344
0.42842621 0.19460572 0.06415832
0.42831773 0.19523986 0.064020395
0.4282527 0.1958763 0.063942075
0.4280827 0.19650742 0.063718915
0.42802846 0.19714455 0.063655734
0.42788732 0.19777735 0.06347239
0.42774898 0.19841045 0.063292861
0.42763603 0.1990449 0.063148618
0.42735213 0.19967137 0.062768102
0.42723691 0.20030603 0.06262064
0.42702872 0.20093651 0.06234467
0.42671382 0.20156246 0.061921358
0.42655766 0.20219582 0.061717391
0.42630047 0.20282492 0.061373711
0.42617005 0.20345975 0.061205149
0.42609596 0.20409706 0.06111455
0.42581749 0.20472597 0.060741663
0.42546844 0.20535238 0.060271144
0.42539424 0.20599015 0.060180306
0.4246015 0.20659998 0.059097052
0.42820704 0.17532466 0.062404513
0.42832553 0.1759762 0.062580228
0.42843682 0.17662697 0.062746048
0.4286024 0.17728145 0.062986851
0.42878157 0.1779366 0.063246727
0.42888099 0.17858568 0.063395977
0.42904508 0.17923914 0.063634634
0.42906386 0.179882 0.063672543
0.42938215 0.18054564 0.064124584
0.42942095 0.18118949 0.064190149
0.42954475 0.18183899 0.064373136
0.42945898 0.18247411 0.064266324
0.42930532 0.18310477 0.064065814
0.42919463 0.18373844 0.063924432
0.42933178 0.18438828 0.064125896
0.4293828 0.18503229 0.064208269
0.4294281 0.18567581 0.064282775
0.42939842 0.18631445 0.064253569
0.42943394 0.18695712 0.064314485
0.42943722 0.18759768 0.064330697
0.42942351 0.18823712 0.064323545
0.42940038 0.18887594 0.064303279
0.42936289 0.18951389 0.064263225
0.42934066 0.1901527 0.06424439
0.42927629 0.19078901 0.064167142
0.4292323 0.19142652 0.064118028
0.42914951 0.19206184 0.064015388
0.42909211 0.19269863 0.063947678
0.42901546 0.19333434 0.063853502
0.42892581 0.19396941 0.063741326
0.42883259 0.19460435 0.063624144
0.42869264 0.19523689 0.063442469
0.42864484 0.19587433 0.063388109
0.42846352 0.19650497 0.063149095
0.42839468 0.19714144 0.063065648
0.42823124 0.19777328 0.062851429
0.42803466 0.19840367 0.062591314
0.42798346 0.19904123 0.062532306
0.42756039 0.19966124 0.061959147
0.42741412 0.20029467 0.061768651
0.42726207 0.20092796 0.061570168
0.42700249 0.20155659 0.06122303
0.42702156 0.20219786 0.061261058
0.42676717 0.2028271 0.060921192
0.42660099 0.20346043 0.060703158
0.42648512 0.20409605 0.060554624
0.4261443 0.20472248 0.060095191
0.42562187 0.20534201 0.059384704
0.42503703 0.2059598 0.058587909
0.42364883 0.20654707 0.056680799
0.4288758 0.17534074 0.06223011
0.42893177 0.17598751 0.062319517
0.42910737 0.17664295 0.062574625
0.42916024 0.1772891 0.06265986
0.42934197 0.17794435 0.062923193
0.42945004 0.17859405 0.063084841
0.42969221 0.17925301 0.063431978
0.42964822 0.17989139 0.063382864
0.4298526 0.18054706 0.063677788
0.42991847 0.18119279 0.063780904
0.4300518 0.18184295 0.063977361
0.42994732 0.18247682 0.063844681
0.42987061 0.18311261 0.063750386
0.42983758 0.18375133 0.063716531
0.42990875 0.18439676 0.063826919
0.42990518 0.18503723 0.063833833
0.42997044 0.18568203 0.063936114
0.42992759 0.1863198 0.063888669
0.42992318 0.18695995 0.063894391
0.42993933 0.18760133 0.063928604
0.42991781 0.18824033 0.063910842
0.42990071 0.18887953 0.06389904
0.42985523 0.18951698 0.063847899
0.42981523 0.19015475 0.063804269
0.42974395 0.19079071 0.063717484
0.42969131 0.19142778 0.063656569
0.42961091 0.19206326 0.063557148
0.42951548 0.19269796 0.063436866
0.42944431 0.19333404 0.063350201
0.42936569 0.19396974 0.063253164
0.4292556 0.19460385 0.063112617
0.429102 0.19523576 0.062911987
0.42902851 0.19587192 0.062822104
0.42887264 0.19650397 0.062618136
0.428707 0.19713566 0.062400699
0.42858273 0.19776957 0.062240601
0.42833346 0.19839749 0.061907411
0.42834896 0.1990384 0.061940551
0.42797261 0.19966072 0.061431766
0.42768812 0.20028782 0.0610497
0.42759156 0.20092382 0.060927987
0.42740595 0.20155588 0.060682893
0.42728627 0.20219107 0.060529113
0.42726177 0.20283048 0.060507059
0.4268893 0.20345503 0.0600034
0.42638981 0.20407473 0.059324026
0.42611414 0.2047043 0.058954477
0.4255439 0.20532228 0.058177233
0.42430979 0.20591469 0.056481481
0.42864537 0.17207205 0.060749888
0.42868739 0.1727189 0.060820222
0.42895889 0.17338343 0.061208487
0.4292174 0.17404649 0.061578751
0.42934006 0.1746987 0.061760783
0.42954695 0.17535704 0.062059402
0.42951983 0.17599747 0.062033892
0.42980391 0.1766609 0.062439561
0.4297654 0.1773002 0.062398314
0.43004012 0.17796218 0.06279099
0.43005902 0.17860529 0.062829137
0.43024737 0.17926034 0.063102007
0.43023014 0.1799006 0.063090205
0.43037617 0.18055214 0.063304543
0.43038881 0.1811942 0.063333988
0.43053448 0.18184525 0.06354785
0.43044931 0.18248042 0.063441873
0.43047458 0.18312302 0.063488841
0.430435 0.18376121 0.063445926
0.43049735 0.18440604 0.063544273
0.43046129 0.18504438 0.063506246
0.43051237 0.1856882 0.063588977
0.43044996 0.18632475 0.063514471
0.43047106 0.18696648 0.063555598
0.43044358 0.18760514 0.063529611
0.43042356 0.18824422 0.063513756
0.43038785 0.18888229 0.063476205
0.43034643 0.18952002 0.063430667
0.43029135 0.19015694 0.063366413
0.43021101 0.1907924 0.063266993
0.43014997 0.191429 0.063194275
0.43004471 0.19206312 0.063060522
0.42997056 0.19269904 0.062969685
0.42989218 0.1933348 0.062873006
0.42977518 0.19396849 0.062722802
0.42967725 0.19460329 0.062599063
0.42951071 0.19523458 0.062380195
0.4294619 0.19587211 0.062324524
0.42926627 0.19650215 0.062065482
0.42910665 0.19713421 0.061856151
0.42897528 0.19776787 0.061686158
0.42867553 0.1983934 0.061282873
0.42858613 0.19902942 0.061170816
0.42828757 0.19965564 0.0607692
0.42802495 0.20028386 0.060417295
0.42814243 0.20092976 0.060591936
0.42786604 0.20155773 0.060221076
0.42755497 0.20218451 0.059801936
0.4275344 0.20282426 0.059785485
0.42704284 0.20344388 0.059116483
0.426359 0.2040561 0.058181286
0.42561901 0.20466697 0.057168365
0.42462349 0.20526847 0.055801511
0.4239018 0.20588228 0.054813981
0.42723095 0.16740631 0.057600141
0.42747676 0.16807246 0.057953238
0.42786092 0.16874968 0.058498383
0.42832768 0.16943303 0.059157968
0.42852199 0.17009336 0.05943954
0.42893553 0.17077103 0.060025334
0.42911971 0.17142963 0.060292959
0.42938101 0.17209405 0.060667515
0.4294529 0.17274304 0.060779452
0.42961538 0.17339891 0.061016917
0.43000907 0.17407231 0.061575055
0.43002158 0.17471592 0.0616045
0.4302249 0.17537385 0.06189847
0.43022645 0.1760163 0.061912894
0.43046027 0.17667587 0.062249303
0.43049067 0.17732011 0.062303543
0.43072754 0.17797919 0.062644124
0.43074477 0.17862207 0.062680125
0.43082941 0.17926964 0.062809587
0.4308778 0.17991444 0.062888741
0.43096358 0.18056171 0.063019753
0.43096983 0.18120325 0.063040376
0.43104082 0.18184917 0.063151002
0.43099499 0.182487 0.063099504
0.4310562 0.18313196 0.063196301
0.43099713 0.18376882 0.063126683
0.43102664 0.18441147 0.063179612
0.43098497 0.18504938 0.063133836
0.43099111 0.18569037 0.06315434
0.43096972 0.18632951 0.063136816
0.43099636 0.18697159 0.063185573
0.43095011 0.18760909 0.063133597
0.43091542 0.18824728 0.063097477
0.43088144 0.18888547 0.06306231
0.43082541 0.18952236 0.062996626
0.43076599 0.19015902 0.062926292
0.43066752 0.19079345 0.062801719
0.43062681 0.19143124 0.062757134
0.4305017 0.19206429 0.062595725
0.43043441 0.19270064 0.062514424
0.43029755 0.19333322 0.062336683
0.43018693 0.19396734 0.062195301
0.43010384 0.194603 0.062092066
0.42996544 0.19523582 0.061912179
0.42990071 0.19587255 0.061834455
0.42964375 0.19649954 0.061490059
0.42943227 0.19712907 0.061208963
0.42935002 0.19776528 0.061106682
0.42903209 0.19839004 0.060677886
0.42885888 0.19902213 0.060449719
0.42871696 0.19965592 0.060264945
0.42845315 0.20028417 0.059911132
0.42860007 0.20093147 0.060126781
0.42826802 0.20155697 0.059678316
0.4276011 0.20216809 0.058765888
0.42736757 0.20279892 0.058454037
0.42705369 0.20342663 0.058030844
0.42618865 0.2040316 0.056843638
0.42519045 0.2046323 0.055471897
0.42738783 0.1667345 0.056699276
0.42825609 0.16745389 0.057916999
0.42846322 0.16811642 0.058216691
0.42878908 0.16878845 0.058681607
0.42929566 0.16947481 0.059397101
0.4294523 0.17013173 0.059626818
0.42972368 0.17079762 0.060015798
0.42993367 0.1714581 0.060319543
0.4300589 0.17211144 0.060505629
0.43035352 0.17277786 0.060926795
0.43037122 0.17342219 0.060963631
0.43074149 0.17409357 0.061489701
0.43075371 0.17473702 0.061519027
0.43092698 0.17539251 0.06177175
0.43089032 0.17603195 0.061732888
0.43112528 0.17669152 0.062071443
0.43117142 0.17733678 0.062147617
0.43132621 0.1779898 0.062374592
0.43135822 0.17863366 0.062431216
0.43143648 0.1792807 0.062551975
0.43143302 0.17992176 0.062559366
0.43155146 0.18057127 0.062735915
0.43152869 0.18121082 0.062716484
0.4315719 0.1818548 0.062788606
0.43155211 0.18249434 0.062773228
0.43159813 0.18313825 0.062849164
0.43153971 0.18377514 0.062780261
0.43156481 0.18441747 0.062827229
0.43154132 0.18505657 0.062806726
0.43153292 0.18569657 0.062807083
0.43149132 0.18633442 0.062761426
0.43147814 0.18697403 0.062755346
0.43144846 0.18761253 0.06272614
0.43140191 0.18825002 0.062673688
0.43135309 0.18888736 0.062618017
0.43127799 0.18952312 0.062525868
0.43122035 0.19015993 0.062457919
0.43110752 0.19079359 0.062313437
0.43105334 0.19143069 0.062250257
0.43093038 0.19206388 0.062091708
0.43085396 0.19269976 0.061997652
0.43070453 0.19333173 0.061802387
0.43062514 0.19396761 0.061704278
0.43056452 0.19460452 0.061632156
0.43034065 0.19523288 0.061333537
0.43025964 0.19586889 0.061233163
0.43002325 0.19649701 0.060917258
0.42971987 0.19712204 0.060508132
0.42964852 0.19775894 0.060421228
0.42935169 0.19838491 0.0600214
0.42915499 0.199016 0.059760451
0.42916369 0.19965704 0.059784532
0.42883831 0.20028245 0.059345007
0.42869461 0.20091659 0.05915761
0.42865407 0.20155548 0.059113264
0.42796779 0.20216583 0.05817318
0.42740643 0.20278251 0.057406306
0.4263494 0.20337881 0.055951595
0.42555261 0.20398755 0.054858208
0.42833304 0.16354659 0.056843281
0.42771375 0.1641378 0.055994987
0.42747307 0.16476305 0.055673003
0.4275465 0.16541588 0.055787563
0.42799515 0.1661009 0.056423306
0.42866862 0.16680434 0.057371497
0.42912662 0.16748844 0.058020234
0.42955142 0.16816902 0.058623075
0.42960924 0.1688183 0.058715701
0.43010259 0.16950335 0.059413552
0.43036276 0.1701685 0.059787393
0.43045247 0.1708194 0.059924483
0.4307465 0.17148648 0.060345173
0.43072951 0.17212833 0.060334086
0.43115336 0.1728048 0.060935259
0.43106306 0.17344047 0.06082201
0.43137717 0.17410743 0.061270833
0.43140304 0.1747518 0.061318994
0.43154019 0.17540447 0.061521888
0.43166751 0.17605615 0.061710954
0.43177664 0.17670618 0.061874986
0.43196583 0.17736183 0.062150002
0.43197256 0.17800389 0.062171698
0.43200845 0.17864792 0.062233567
0.43197656 0.17928703 0.062201619
0.43201476 0.179931 0.062266946
0.43210697 0.18057866 0.062407374
0.43212909 0.18122123 0.062450171
0.43212104 0.18186162 0.062451243
0.4320901 0.18250042 0.062420487
0.43212783 0.18314375 0.06248498
0.43209857 0.18378255 0.062456608
0.43210399 0.18442358 0.062476397
0.43206507 0.18506162 0.062434435
0.43205875 0.18570176 0.062437773
0.43201315 0.18633933 0.062386632
0.43199235 0.18697847 0.062369823
0.43193465 0.18761528 0.062301874
0.43188787 0.18825276 0.062249064
0.43183625 0.18888992 0.062189698
0.43175405 0.18952528 0.062087536
0.43169451 0.190162 0.062016964
0.43157172 0.19079511 0.061858535
0.43148839 0.19143057 0.061754823
0.43135726 0.19206336 0.06158483
0.43124837 0.19269755 0.061445832
0.43116719 0.19333327 0.0613451
0.43097425 0.19396308 0.061089277
0.43095583 0.19460234 0.061075807
0.43069994 0.19522911 0.060732365
0.43047541 0.19585779 0.060432673
0.43029201 0.19648884 0.060190082
0.43000919 0.19711509 0.059809327
0.42993587 0.19775207 0.059719682
0.42977649 0.19838485 0.05951035
0.42947721 0.1990111 0.059106827
0.42951632 0.19965371 0.059173226
0.4292379 0.20028143 0.058798671
0.42876506 0.20090057 0.058153987
0.42843109 0.2015266 0.057702303
0.42807996 0.20215228 0.057226777
0.42710972 0.20275152 0.055891395
0.42958021 0.16232526 0.05744493
0.42823613 0.1628499 0.055588007
0.42800313 0.16347559 0.055276394
0.42797321 0.16411957 0.055247188
0.42794394 0.16476355 0.055218935
0.42858434 0.16546576 0.056122303
0.42946738 0.16618785 0.057362914
0.42981339 0.16686261 0.057856679
0.42999053 0.16752245 0.058115482
0.43032956 0.16819559 0.058599472
0.43052632 0.16885626 0.058885455
0.43083936 0.16952614 0.059333324
0.43114555 0.17019491 0.059771538
0.43120635 0.17084327 0.059868574
0.43151242 0.17151113 0.060306549
0.43145448 0.17214952 0.060238361
0.43177265 0.17281754 0.060693264
0.43185019 0.17346624 0.060813427
0.43199688 0.17412004 0.061029911
0.43203735 0.17476548 0.061098576
0.43222249 0.1754217 0.061368227
0.43236399 0.1760743 0.061577439
0.43244505 0.17672211 0.06170249
0.4325313 0.17737009 0.061834812
0.43255043 0.17801303 0.061873674
0.43258941 0.1786572 0.061940312
0.43259293 0.17929879 0.061957479
0.43261182 0.17994133 0.061995983
0.43264127 0.18058452 0.06204915
0.4326359 0.1812252 0.062054038
0.43267274 0.18186867 0.062117577
0.43263328 0.18250684 0.062075138
0.43266064 0.18314947 0.062125206
0.43263131 0.18378824 0.062096834
0.4326247 0.18442844 0.062099814
0.43257916 0.18506609 0.062048793
0.43256456 0.18570569 0.062040687
0.43250835 0.18634261 0.061974764
0.43247986 0.18698128 0.061947465
0.43241203 0.18761745 0.061865449
0.43234646 0.18825381 0.061786413
0.43229181 0.18889084 0.061722636
0.43219441 0.18952532 0.061599374
0.43211842 0.19016115 0.061506033
0.43199182 0.19079411 0.061342239
0.43191135 0.19142979 0.06124258
0.43177718 0.19206245 0.061068177
0.4316352 0.19269487 0.060883045
0.43159342 0.19333287 0.06083703
0.43133605 0.19395922 0.060491562
0.43117952 0.19459128 0.060286045
0.43100619 0.19522259 0.060057282
0.43077916 0.19585128 0.059753895
0.43068606 0.19648707 0.059636593
0.43037385 0.19711192 0.059214711
0.43023634 0.19774583 0.059035778
0.43022454 0.19838597 0.059031606
0.42983758 0.19900803 0.058505654
0.42969382 0.19964212 0.058318019
0.42953759 0.20027573 0.058113098
0.42891014 0.20088801 0.057253003
0.4282093 0.20149776 0.056290984
0.4273715 0.20210245 0.055138469
0.42888284 0.16221963 0.055366039
0.42853343 0.16283469 0.054892302
0.4284268 0.16347183 0.054756403
0.42857885 0.16413198 0.054980636
0.4293862 0.16484937 0.056117296
0.43015838 0.16556236 0.057204843
0.43022215 0.16621302 0.057306051
0.43071669 0.16690032 0.058007121
0.43091303 0.16756153 0.058292985
0.43118906 0.16822904 0.058689833
0.43147826 0.16889715 0.059104919
0.43154544 0.16954643 0.059210896
0.43193114 0.17022158 0.059760213
0.43201137 0.17087127 0.059884429
0.43217629 0.17152762 0.060126543
0.43222129 0.1721741 0.060201645
0.43247235 0.17283666 0.060563564
0.43263185 0.17349158 0.060798049
0.43269169 0.17413852 0.060893774
0.43279117 0.1747883 0.061044574
0.43289405 0.17543812 0.061200261
0.43308806 0.17609455 0.061482787
0.43304515 0.17673297 0.061435461
0.43312901 0.17738074 0.061564565
0.43315762 0.17802426 0.061616778
0.43323588 0.17867123 0.061738133
0.43316197 0.17930721 0.061647534
0.43316764 0.17994876 0.0616678
0.43319273 0.18059161 0.061715126
0.4332056 0.18123351 0.061745405
0.43320179 0.18187417 0.061752439
0.43315291 0.18251169 0.061696887
0.43318576 0.18315469 0.061754942
0.43314821 0.18379287 0.061715007
0.43313074 0.1844324 0.061702967
0.43308729 0.18507016 0.061654806
0.43306124 0.18570903 0.061630964
0.43300074 0.1863457 0.061559081
0.43296534 0.18698393 0.061522007
0.43288612 0.18761943 0.061424136
0.43282104 0.18825586 0.061345816
0.43275166 0.18889201 0.061261654
0.43263614 0.18952546 0.061113119
0.43256241 0.19016148 0.061022997
0.43241662 0.19079335 0.060832143
0.43233955 0.1914293 0.060737371
0.43217671 0.19206044 0.060522795
0.43198544 0.19269016 0.060269117
0.43195951 0.19332914 0.060245156
0.43167186 0.19395398 0.059857249
0.43153936 0.19458741 0.059684992
0.43135065 0.19521801 0.059434772
0.43103439 0.19584219 0.059006929
0.43102252 0.19648235 0.059002638
0.4307614 0.19710989 0.058651686
0.43048608 0.19773705 0.058280706
0.43047702 0.19837753 0.058280349
0.43010187 0.19900037 0.05777061
0.42967939 0.19962145 0.057194948
0.42940098 0.20024979 0.056819916
0.42868876 0.20085858 0.055841208
0.4291569 0.16220218 0.054637909
0.4290145 0.16283603 0.054452181
0.42909753 0.16349016 0.05458045
0.42974579 0.16419417 0.055496454
0.43055063 0.16491084 0.056630731
0.43104696 0.16559938 0.057335019
0.43126547 0.1662631 0.057651997
0.43150544 0.16692825 0.057999015
0.43179786 0.1675974 0.058419108
0.43195492 0.16825464 0.058650613
0.43237185 0.16893323 0.059244037
0.43233085 0.16957331 0.059199452
0.43257946 0.17023703 0.059558511
0.4326818 0.17088845 0.059713602
0.43280756 0.17154154 0.059901476
0.43295789 0.17219628 0.060123444
0.43311113 0.17285094 0.060349345
0.43330216 0.17350827 0.060628057
0.43329942 0.17415026 0.060636759
0.43349367 0.17480722 0.06092
0.43351817 0.17545095 0.060966611
0.4336856 0.17610529 0.06121242
0.43366629 0.17674543 0.061197877
0.43375665 0.17739359 0.061336279
0.43370628 0.17803127 0.061278582
0.43375725 0.17867628 0.061361909
0.43373072 0.1793156 0.06133759
0.43373311 0.17995688 0.061353326
0.4337154 0.18059669 0.061341047
0.43370563 0.18123701 0.061339855
0.43371451 0.18187855 0.061364651
0.43369597 0.18251814 0.061351299
0.43369454 0.18315883 0.06136167
0.43365711 0.18379703 0.061322093
0.43364024 0.18443657 0.061310887
0.43359035 0.18507391 0.061253905
0.43355662 0.18571229 0.061219215
0.43347645 0.18634774 0.061119914
0.43342519 0.18698502 0.061060905
0.43335122 0.18762088 0.060970306
0.43326283 0.18825589 0.060859561
0.43318987 0.18889189 0.060770273
0.4330495 0.18952395 0.060587168
0.43299472 0.19016112 0.060523152
0.43281579 0.19079113 0.060286403
0.43270189 0.19142506 0.060140014
0.43258101 0.19205865 0.059983969
0.43229634 0.19268328 0.059599757
0.43222094 0.19331971 0.059507132
0.43198681 0.1939476 0.059193373
0.43181753 0.19457921 0.058969975
0.43180227 0.1952191 0.058961034
0.43145204 0.1958416 0.058485627
0.43138134 0.1964788 0.058399439
0.43122977 0.19711196 0.058200717
0.43079352 0.19773117 0.057605386
0.43070036 0.19836767 0.057487965
0.43046367 0.19899735 0.05717063
0.4298833 0.19961108 0.056374669
0.42898679 0.20021085 0.055138469
0.42817104 0.20081559 0.054014683
0.42964494 0.16155735 0.054194808
0.42969394 0.16220856 0.05427587
0.42983383 0.16286786 0.054483771
0.43067217 0.1635893 0.055665851
0.43129504 0.16429028 0.056547284
0.43138522 0.1649434 0.056685805
0.43184692 0.16562872 0.05734241
0.43223184 0.16630661 0.057892084
0.43230641 0.16695726 0.058008671
0.43266451 0.16763176 0.058520794
0.43273628 0.1682816 0.058633685
0.43305975 0.16895223 0.059097409
0.43316305 0.16960408 0.059254169
0.43329412 0.17025793 0.059449553
0.43334085 0.1709047 0.059527278
0.4335146 0.17156152 0.059782267
0.43377769 0.17222512 0.060161829
0.4337967 0.172869 0.060201049
0.43396914 0.17352474 0.060454011
0.43393475 0.17416415 0.060418606
0.4341116 0.17481969 0.060677886
0.43410468 0.17546098 0.060680628
0.43426883 0.17611502 0.060922146
0.43420136 0.17675151 0.060840726
0.43430746 0.17740083 0.061001062
0.43426985 0.17803942 0.060961246
0.43429005 0.17868212 0.061002016
0.43427354 0.17932212 0.060991406
0.43426615 0.17996274 0.060993552
0.43425417 0.18060294 0.060989499
0.4342432 0.18124315 0.060986757
0.43424106 0.18188389 0.060996294
0.43422306 0.18252352 0.060983539
0.43419588 0.18316245 0.060958266
0.43415928 0.18380074 0.060919762
0.43414086 0.18444018 0.06090641
0.43407625 0.18507658 0.060828805
0.43403232 0.18571432 0.060780168
0.43395263 0.18634979 0.060681462
0.43389893 0.18698695 0.060618997
0.43379444 0.18762095 0.06048584
0.43367898 0.18825442 0.060337186
0.43362319 0.1888915 0.060271859
0.43349409 0.18952425 0.06010437
0.43344516 0.19016182 0.06004858
0.43327934 0.19079265 0.059829831
0.43309486 0.19142257 0.059585094
0.43294889 0.19205485 0.059394002
0.43267661 0.19268022 0.059026837
0.43263453 0.19331859 0.058980584
0.43247306 0.19395047 0.058767915
0.43219942 0.19457653 0.058398843
0.43219131 0.19521691 0.058399916
0.43183261 0.19583905 0.05791235
0.43166441 0.19647135 0.057690144
0.4315123 0.19710466 0.057490587
0.43102032 0.19772123 0.056817174
0.43050152 0.1983372 0.056106329
0.43023342 0.19896591 0.055745006
0.42979181 0.19958672 0.055141807
0.42891997 0.20018807 0.053938866
0.43020743 0.16156612 0.053868175
0.43079436 0.16226625 0.054700494
0.43138957 0.16296618 0.055544257
0.43166715 0.16363671 0.055944562
0.43212092 0.16432236 0.056590796
0.43254262 0.16500442 0.057192445
0.43268996 0.16566184 0.057410955
0.43303359 0.16633596 0.057903409
0.43314052 0.16698916 0.058065534
0.43346745 0.1676608 0.058534622
0.43353111 0.16830969 0.058636189
0.43372667 0.16896947 0.058921814
0.4338817 0.16962548 0.059150934
0.43397474 0.17027609 0.059293628
0.43416125 0.17093408 0.059566617
0.4341678 0.17157722 0.059588432
0.43440521 0.17223868 0.05993259
0.4344039 0.17288086 0.059943318
0.43459338 0.17353785 0.060220599
0.4345634 0.17417756 0.060191393
0.43471366 0.17483097 0.060413837
0.43468249 0.17547034 0.060382843
0.43483669 0.17612357 0.060610652
0.43482131 0.17676391 0.06060195
0.43488526 0.17741002 0.060703754
0.43483341 0.17804754 0.060644031
0.43483526 0.1786889 0.060659289
0.43480736 0.17932807 0.060632944
0.43480021 0.17996867 0.060635448
0.43476307 0.1806071 0.060596347
0.4347446 0.18124677 0.060583115
0.43473977 0.18188737 0.060588956
0.43469602 0.18252523 0.060540438
0.43468207 0.18316509 0.060533643
0.43465048 0.18380372 0.060502052
0.4346174 0.18444224 0.060468435
0.43453956 0.1850778 0.060372233
0.43450433 0.18571614 0.060335755
0.4344089 0.18635064 0.060215116
0.43433809 0.18698676 0.060128808
0.43424183 0.18762131 0.060006976
0.43413275 0.18825519 0.059867382
0.43407345 0.18889214 0.059797049
0.43387604 0.18952084 0.059534073
0.4338209 0.19015817 0.059469581
0.43372577 0.19079314 0.059349298
0.43348074 0.19141965 0.059019923
0.43336689 0.19205385 0.058873534
0.43310344 0.19267982 0.05851841
0.43302929 0.19331644 0.058427572
0.43292725 0.19395165 0.058297634
0.43258649 0.19457416 0.057834625
0.43252015 0.19521154 0.057754517
0.43224752 0.19583827 0.057386518
0.4318468 0.19645877 0.056839943
0.43176448 0.19709581 0.056737542
0.4314602 0.19772191 0.056325436
0.43070853 0.19832654 0.05528903
0.42979699 0.19892448 0.054029822
0.42929697 0.19954325 0.053344488
0.42914492 0.20017888 0.053144813
0.42884803 0.15945356 0.050817251
0.43072283 0.16027683 0.053450227
0.43097943 0.16094749 0.053821683
0.43137532 0.16163044 0.054387808
0.4318608 0.16232091 0.055079222
0.4323684 0.16301253 0.055801392
0.43252921 0.16367227 0.056038976
0.43287444 0.16434805 0.05653429
0.43337739 0.1650371 0.057249904
0.43341118 0.16568439 0.057309985
0.43379909 0.16636215 0.057864785
0.4339577 0.16701964 0.05809927
0.43411398 0.16767654 0.058330417
0.4342832 0.16833426 0.058579683
0.43434834 0.16898295 0.058683515
0.43463582 0.16964984 0.059098005
0.43463504 0.17029259 0.059109807
0.43482459 0.17095071 0.059387326
0.43480474 0.17159162 0.059372306
0.43501687 0.17225097 0.059681416
0.43501896 0.17289338 0.059697151
0.43522125 0.17355129 0.059992552
0.43520892 0.17419223 0.059988022
0.43530148 0.17484117 0.06013
0.43522453 0.17547698 0.060035348
0.43536675 0.17612933 0.060246706
0.43535548 0.17676994 0.060243607
0.43538928 0.17741382 0.060303569
0.43536806 0.17805356 0.060286522
0.43537474 0.17869528 0.060308576
0.43533081 0.17933325 0.060260057
0.4353081 0.17997274 0.060240746
0.43527883 0.18061173 0.060212731
0.43525529 0.18125108 0.060192466
0.43524122 0.18189101 0.060185432
0.43520164 0.18252918 0.060142875
0.43517739 0.18316834 0.060121536
0.43513167 0.18380605 0.060070395
0.43509835 0.18444453 0.060036302
0.43500793 0.18507932 0.059922695
0.43496877 0.18571746 0.059880495
0.4348641 0.18635142 0.059746981
0.43478698 0.18698716 0.059651852
0.43468159 0.18762121 0.059517384
0.43454337 0.18825333 0.059336782
0.43447614 0.18888989 0.0592556
0.43429023 0.18951938 0.05900836
0.43423891 0.19015698 0.058949351
0.43407702 0.19078818 0.058735967
0.43374747 0.19140996 0.058288097
0.43381196 0.19205438 0.058390737
0.43351883 0.1926787 0.057993889
0.4333601 0.19331081 0.057784796
0.4333421 0.19395067 0.057772279
0.4328894 0.19456726 0.05715251
0.43252754 0.19518925 0.056659579
0.43256634 0.19583252 0.056726456
0.43190944 0.19644003 0.055821538
0.43143171 0.19705752 0.055166841
0.43124139 0.19768989 0.05491364
0.43063366 0.19830206 0.054077387
0.42997622 0.19891268 0.053171754
0.43105537 0.15961711 0.052788973
0.43141878 0.16029815 0.053310394
0.4321025 0.16100822 0.054279685
0.4326576 0.16170537 0.055069089
0.43280518 0.1623645 0.055288553
0.43321919 0.16304737 0.055880547
0.43357337 0.16372417 0.056388736
0.43371439 0.16438144 0.056599021
0.43412453 0.16506211 0.05718565
0.43414569 0.16570811 0.057228088
0.43440998 0.16637503 0.057610631
0.43465412 0.16703975 0.057965159
0.43478942 0.16769478 0.058167219
0.43503904 0.16835916 0.058529258
0.43499929 0.1689989 0.058486462
0.43521899 0.16966009 0.058806539
0.43519616 0.17030098 0.058787584
0.43536186 0.17095713 0.059032083
0.43545949 0.17160749 0.059181452
0.43563598 0.17226389 0.05944109
0.43565005 0.17290714 0.059473515
0.43576884 0.17355849 0.059652448
0.43577015 0.17420043 0.05966711
0.43588209 0.17485082 0.059836507
0.43580067 0.17548625 0.059735537
0.43589342 0.17613482 0.059877992
0.435902 0.17677687 0.059902668
0.43593544 0.17742075 0.059962273
0.43588746 0.17805849 0.059907913
0.43588787 0.17869972 0.059921145
0.43585134 0.17933826 0.059882998
0.43583196 0.17997797 0.059868574
0.43579048 0.18061608 0.059823394
0.43575609 0.18125468 0.059787989
0.43572968 0.18189378 0.059763789
0.43568361 0.18253152 0.059712052
0.43565768 0.18317059 0.059688449
0.43559515 0.18380719 0.059613824
0.43556088 0.18444566 0.059578538
0.43546414 0.18508008 0.059455991
0.43543696 0.185719 0.059430599
0.43530732 0.18635142 0.059262156
0.43517911 0.18698405 0.059095621
0.43509251 0.18761931 0.05898726
0.43494713 0.18825111 0.058796644
0.43489641 0.18888871 0.058738351
0.43467379 0.1895161 0.058439851
0.43455082 0.19014956 0.058280468
0.43446094 0.19078508 0.058167577
0.43415004 0.19140802 0.057745576
0.4340995 0.192046 0.057687521
0.43396109 0.19267915 0.057506561
0.43369621 0.19330543 0.057149053
0.43365431 0.19394416 0.057103157
0.43316418 0.19455887 0.056430578
0.43274122 0.19517782 0.055851936
0.43262225 0.19581309 0.055698276
0.43221945 0.19643396 0.055147767
0.43151462 0.19704014 0.054175138
0.43073362 0.1976435 0.053096056
0.43045682 0.19827259 0.052721739
0.43232453 0.15969251 0.053451657
0.43278277 0.16038188 0.054106355
0.43309438 0.16105689 0.054555655
0.43350798 0.16174071 0.055147767
0.43396366 0.1624276 0.05579865
0.43403172 0.16307881 0.05590713
0.43453789 0.16376902 0.056628704
0.43468362 0.16442634 0.056845665
0.43493891 0.16509306 0.057216167
0.43509555 0.16575068 0.057448506
0.43516552 0.16640046 0.057559252
0.43550324 0.16707306 0.05804503
0.43552244 0.16771792 0.058084846
0.43577307 0.16838223 0.058448792
0.4357391 0.16902228 0.058414102
0.43594432 0.1696821 0.058714271
0.43597263 0.17032705 0.058766842
0.43612337 0.17098181 0.058990836
0.43612105 0.17162393 0.059000492
0.43631238 0.17228143 0.05928123
0.43631101 0.1729233 0.059292197
0.43634498 0.17356791 0.059352636
0.43635899 0.17421079 0.05938518
0.43643773 0.17485857 0.059508204
0.4364053 0.17549767 0.05947566
0.43645984 0.1761433 0.059564948
0.43642521 0.17678215 0.059529185
0.43645853 0.17742598 0.05958879
0.43641889 0.17806432 0.059545994
0.43641317 0.17870508 0.059550881
0.43636185 0.17934252 0.059491873
0.43633205 0.17998149 0.059462905
0.43629307 0.18061982 0.059421301
0.43624336 0.18125734 0.059364557
0.43620455 0.18189561 0.059322953
0.43616337 0.18253371 0.05927825
0.43611634 0.18317139 0.059225082
0.43604147 0.18380722 0.059133172
0.43602258 0.18444677 0.059119582
0.43590122 0.1850796 0.058962464
0.43583423 0.18571605 0.058881402
0.43568051 0.18634699 0.058679104
0.43558657 0.18698186 0.058560252
0.43551582 0.18761823 0.058474183
0.43530488 0.18824604 0.058191657
0.43523127 0.18888238 0.058101416
0.43508595 0.18951449 0.0579108
0.43489581 0.19014409 0.05765748
0.43493491 0.19078718 0.057724953
0.43456906 0.19140701 0.057225704
0.4344207 0.19203958 0.057030797
0.43431103 0.19267441 0.05689013
0.43390518 0.19329309 0.056334853
0.43384945 0.19393128 0.056269765
0.43340468 0.19454867 0.055660009
0.43286252 0.19516152 0.054914117
0.43229997 0.19577405 0.054139614
0.43202633 0.19640215 0.053769469
0.43286949 0.15905319 0.053088069
0.43326408 0.15973699 0.053654313
0.43374509 0.16042817 0.054341555
0.43408245 0.16110525 0.054827571
0.43432438 0.16177294 0.055179596
0.43488169 0.16246893 0.055973649
0.43500566 0.16312486 0.056160569
0.43527037 0.1637931 0.056544542
0.43543965 0.16445237 0.056794763
0.43559974 0.16511051 0.057032228
0.43595874 0.1657857 0.057548285
0.43600672 0.16643333 0.057628751
0.43620175 0.16709343 0.057914853
0.43624252 0.16774 0.057985067
0.43640733 0.16839693 0.05822897
0.43636149 0.16903591 0.058177829
0.43663925 0.16970168 0.058580041
0.43668377 0.17034778 0.058655381
0.43677151 0.17099726 0.05879128
0.43684417 0.17164533 0.058906078
0.4369188 0.17229335 0.059023619
0.43692118 0.17293547 0.05903995
0.43696004 0.17358036 0.059107304
0.43696839 0.17422274 0.05913198
0.43698013 0.17486531 0.059161544
0.4369579 0.17550521 0.059143305
0.43698633 0.17614882 0.059195995
0.43696445 0.17678857 0.059178114
0.4369868 0.17743154 0.05922246
0.43692589 0.17806834 0.059149981
0.43691427 0.17870872 0.059146762
0.4368639 0.17934625 0.059089065
0.43683559 0.17998534 0.059062243
0.43677312 0.18062197 0.058987617
0.4367339 0.18126026 0.058945537
0.43667513 0.18189718 0.058876157
0.43662417 0.18253462 0.058817625
0.43657309 0.18317209 0.058759093
0.4364875 0.18380722 0.058651924
0.43645537 0.18444595 0.058619857
0.43632019 0.18507795 0.058443308
0.43629509 0.18571714 0.058421016
0.43616354 0.18634951 0.058249474
0.43603146 0.18698202 0.058077335
0.43593925 0.18761709 0.057960987
0.43571228 0.18824401 0.057655931
0.4356308 0.18887995 0.057554603
0.43550915 0.18951355 0.057397008
0.4352535 0.19013938 0.057051778
0.43532205 0.19078431 0.057160497
0.4350006 0.19140674 0.056723118
0.43466032 0.19202848 0.056259274
0.43471879 0.19267292 0.056354046
0.43418884 0.19328484 0.055624604
0.43382233 0.19390634 0.055124164
0.4338181 0.1945477 0.055130959
0.43346941 0.1584191 0.052801728
0.43414032 0.15912949 0.053756118
0.4343406 0.15979442 0.054050207
0.43453324 0.16045825 0.054333687
0.4350521 0.16115195 0.055074692
0.4352951 0.1618194 0.055428743
0.43554103 0.1624867 0.055786848
0.43574768 0.16314998 0.056089878
0.43597573 0.16381478 0.05642283
0.43644512 0.16450059 0.057094336
0.43643409 0.16514328 0.057092071
0.43656695 0.16579849 0.057291627
0.43661362 0.16644593 0.057370067
0.43688178 0.16711223 0.057759285
0.43689013 0.16775596 0.0577842
0.4370994 0.16841653 0.058090806
0.43706328 0.16905618 0.058053136
0.43720794 0.16971077 0.058269143
0.43730271 0.17036097 0.058415055
0.43736506 0.17100832 0.058515549
0.43739408 0.17165281 0.058569431
0.43744123 0.17229861 0.058648705
0.43747568 0.17294325 0.058709979
0.43752533 0.17358895 0.05879271
0.4375248 0.17423062 0.05880487
0.43752295 0.17487209 0.058815241
0.43751526 0.17551303 0.058817506
0.43751407 0.17615442 0.058828831
0.43749017 0.17679404 0.058808208
0.43747407 0.17743415 0.05879879
0.43742853 0.17807205 0.058747888
0.43740988 0.17871195 0.058734775
0.43736053 0.17934954 0.058678508
0.4373135 0.17998731 0.058625579
0.4372558 0.18062432 0.05855763
0.43720174 0.1812616 0.058494806
0.43715036 0.18189906 0.058435678
0.43707806 0.18253507 0.058347225
0.4370147 0.18317175 0.058271408
0.43691397 0.18380597 0.05814302
0.43691313 0.18444677 0.058154941
0.43675143 0.18507712 0.05794096
0.43667871 0.18571328 0.05785203
0.43653864 0.18634525 0.057668447
0.43636358 0.18697515 0.057435989
0.43638361 0.1876173 0.057476997
0.43613452 0.18824287 0.057140589
0.43597615 0.18887426 0.056931496
0.4359268 0.18951227 0.056875229
0.43562853 0.19013566 0.056470037
0.43572825 0.19078253 0.056622744
0.4354291 0.19140626 0.056216121
0.43503058 0.19202483 0.055670261
0.43498063 0.19266328 0.05561316
0.43454605 0.19328064 0.055016875
0.43397534 0.19389118 0.054229617
0.4342007 0.15779775 0.052699804
0.43424302 0.15844837 0.052772641
0.4349001 0.15915728 0.053708434
0.43524802 0.15983596 0.054210305
0.43541151 0.16049677 0.054453015
0.43587732 0.16118532 0.05512023
0.43615937 0.16185614 0.055529475
0.43636262 0.16251928 0.055828214
0.43666643 0.16319112 0.056267858
0.43673146 0.16384099 0.056372523
0.43703336 0.16451177 0.056809545
0.43702656 0.16515476 0.05681324
0.43720889 0.16581424 0.057082415
0.43727601 0.16646335 0.057189822
0.43750685 0.16712637 0.057527184
0.43757617 0.16777518 0.057637572
0.43773353 0.16843124 0.05787158
0.43781275 0.16908044 0.057996035
0.43784791 0.16972581 0.0580585
0.43792123 0.17037416 0.05817461
0.43794209 0.17101803 0.058217168
0.43798614 0.17166367 0.058291793
0.43799466 0.17230634 0.058317065
0.43806398 0.17295372 0.058427453
0.43804204 0.17359374 0.05840981
0.43805599 0.17423654 0.058442473
0.43807346 0.17487949 0.058480144
0.43804061 0.17551848 0.058447003
0.4380213 0.17615849 0.058433056
0.43799067 0.17679758 0.058403134
0.43797517 0.17743775 0.058394432
0.43792266 0.17807519 0.058333755
0.43789023 0.17871407 0.05830133
0.43783784 0.17935149 0.05824101
0.43778998 0.1799892 0.058186769
0.43771398 0.18062495 0.058093071
0.43766177 0.18126239 0.05803287
0.43759775 0.18189903 0.0579561
0.43751091 0.18253413 0.057847142
0.43746024 0.1831717 0.057789207
0.43733585 0.18380436 0.057627678
0.43729198 0.18444245 0.057579041
0.43711978 0.18507215 0.057350397
0.43700612 0.18570584 0.057203889
0.43684828 0.18633682 0.056995273
0.43671191 0.18696927 0.056816936
0.43669045 0.18760897 0.056799889
0.43652952 0.1882401 0.056586862
0.43641293 0.18887408 0.0564363
0.43638754 0.18951356 0.056413651
0.43607759 0.19013631 0.05599165
0.43593103 0.19076891 0.055799007
0.43585646 0.19140574 0.055707335
0.4353295 0.19201709 0.054980755
0.43501306 0.19264089 0.054549813
0.43480754 0.19327119 0.054274321
0.43411952 0.19387551 0.053321838
0.43465871 0.15715005 0.052214384
0.43515003 0.15784422 0.052918077
0.43537199 0.15851173 0.053243518
0.43572795 0.15919156 0.053757071
0.4362359 0.15988512 0.054484367
0.43640077 0.16054574 0.054729342
0.43666559 0.16121526 0.055114865
0.43690401 0.16188189 0.055463314
0.4370482 0.16253948 0.055679202
0.43736756 0.16321263 0.056141376
0.43738341 0.16385794 0.056176901
0.43758178 0.1645194 0.056468964
0.43768126 0.16517174 0.056622028
0.43789166 0.16583356 0.0569309
0.43796694 0.1664833 0.05704999
0.43813062 0.16714038 0.057293177
0.43827081 0.16779517 0.057503581
0.43836051 0.16844539 0.057642698
0.43841958 0.1690928 0.057739019
0.43839508 0.16973315 0.0577178
0.43846327 0.17038102 0.057826877
0.43849748 0.17102601 0.057888031
0.43857241 0.17167412 0.058006644
0.43857902 0.17231657 0.058029056
0.43859798 0.17295991 0.058068991
0.4386034 0.17360207 0.058089733
0.43859202 0.17424285 0.058086872
0.43858802 0.1748841 0.058094382
0.43855178 0.17552286 0.058056712
0.43853933 0.17616335 0.05805254
0.43849182 0.17680119 0.057998776
0.43846583 0.17744063 0.057975411
0.43840617 0.17807753 0.05790472
0.43837899 0.17871681 0.057879806
0.43829381 0.17935187 0.057773113
0.43823647 0.17998901 0.05770576
0.43816686 0.18062523 0.057621121
0.43810683 0.18126217 0.057549834
0.43803173 0.18189807 0.057457447
0.4379316 0.18253234 0.057329893
0.4378621 0.18316868 0.057245374
0.43773139 0.18380105 0.057074785
0.43763769 0.18443592 0.056956291
0.43752307 0.18506953 0.056808472
0.43738085 0.18570143 0.056621671
0.43727058 0.18633552 0.056479931
0.4371255 0.18696749 0.056289077
0.43709886 0.18760692 0.056264877
0.43692487 0.18823735 0.056033611
0.43672287 0.18886624 0.055762768
0.43677032 0.18951024 0.055842519
0.43638945 0.19012888 0.055320621
0.43598825 0.19074684 0.054770112
0.43595326 0.19138631 0.054734111
0.43561673 0.1920087 0.05427444
0.43495768 0.19261353 0.053361654
0.43540162 0.15653016 0.052129149
0.4356339 0.15719941 0.052469373
0.4359473 0.15787606 0.052923918
0.43642193 0.15856759 0.053604841
0.43667942 0.1592377 0.05398047
0.43705159 0.15991811 0.054517508
0.43743044 0.16059852 0.055063844
0.43739867 0.16124015 0.055032492
0.43770254 0.16191266 0.055473208
0.43780708 0.16256641 0.055633783
0.43808413 0.16323553 0.05603683
0.43821174 0.16389075 0.056229711
0.43838173 0.16454944 0.056482196
0.43851829 0.16520485 0.056687593
0.43863994 0.16585867 0.056872129
0.43866634 0.16650397 0.056922436
0.43876958 0.16715574 0.057081103
0.43889701 0.16780934 0.057273626
0.43893039 0.16845471 0.057333946
0.43901587 0.16910432 0.057467341
0.43898541 0.16974409 0.057437897
0.43908745 0.1703947 0.057594776
0.43907154 0.1710355 0.057585597
0.43914688 0.17168362 0.057704806
0.4391346 0.17232451 0.057700872
0.43916577 0.17296878 0.057757974
0.43914211 0.1736086 0.057737827
0.43912983 0.17424928 0.057733893
0.43910658 0.17488904 0.057714462
0.43907171 0.1755279 0.057678699
0.43903995 0.17616695 0.057647347
0.43899143 0.17680472 0.057592273
0.43894994 0.177443 0.057547212
0.43888336 0.17807944 0.057466745
0.43882316 0.17871635 0.057395339
0.43875128 0.17935239 0.057307482
0.43868667 0.17998902 0.057229877
0.43860465 0.18062446 0.057127595
0.43851852 0.18125962 0.057019711
0.43845004 0.18189605 0.056936622
0.43831348 0.1825279 0.056757808
0.43826908 0.18316604 0.056708455
0.43809927 0.18379588 0.05648303
0.43801641 0.1844316 0.056379676
0.43790412 0.18506543 0.056234956
0.43774664 0.18569644 0.056026578
0.4377141 0.18633555 0.055994034
0.43756682 0.18696745 0.05580008
0.43753201 0.18760644 0.055764198
0.4373982 0.18823935 0.055589318
0.43701583 0.18885738 0.055064917
0.43712664 0.18950531 0.055233836
0.43675458 0.19012459 0.054723859
0.43617576 0.19073233 0.053923249
0.43610317 0.19136989 0.053834319
0.43513101 0.19259892 0.052493811
0.4358542 0.15523501 0.051622152
0.43584347 0.15588075 0.051620603
0.43631846 0.15657419 0.052302957
0.43674648 0.15726221 0.052919269
0.43693924 0.15792675 0.053204179
0.43742764 0.15861927 0.053905249
0.43771166 0.15929152 0.054318666
0.43777931 0.15994284 0.054427505
0.43818158 0.16062529 0.055007339
0.43821663 0.16127296 0.055070281
0.43845767 0.16193944 0.055423141
0.43856537 0.16259329 0.055588126
0.43875116 0.16325399 0.055863261
0.43889326 0.16391039 0.056076646
0.4390586 0.16456856 0.056323051
0.4391979 0.16522411 0.056532502
0.43924963 0.16587168 0.05661869
0.43936169 0.16652432 0.056789875
0.43938446 0.16716905 0.056835413
0.43955219 0.167826 0.057085037
0.43949443 0.16846356 0.057017088
0.43959999 0.1691148 0.057178974
0.43956089 0.16975379 0.057137251
0.43967128 0.17040507 0.05730617
0.43962574 0.1710434 0.057255268
0.43970293 0.17169164 0.057377458
0.43968922 0.17233236 0.057371259
0.43969297 0.17297444 0.057389975
0.43967032 0.17361434 0.057371497
0.43966246 0.17425534 0.057373881
0.43961459 0.17489319 0.057319641
0.4395718 0.17553146 0.057272792
0.43953466 0.1761701 0.05723381
0.43947649 0.17680715 0.057165146
0.43942326 0.17744458 0.057103634
0.43934983 0.17808051 0.057013512
0.43928915 0.1787174 0.05694139
0.439197 0.17935207 0.056825042
0.43911141 0.17998725 0.056717753
0.43904489 0.18062383 0.056637406
0.43896347 0.18125938 0.056536198
0.43886673 0.18189396 0.056413293
0.43872201 0.18252528 0.056222796
0.43867892 0.1831636 0.05617547
0.43844652 0.18378934 0.055861592
0.43829954 0.18442096 0.055667996
0.43828541 0.18506132 0.055661321
0.43809456 0.18569031 0.055405974
0.43817204 0.18633652 0.055528283
0.43795145 0.18696387 0.055231094
0.43766731 0.18758748 0.054844379
0.43777728 0.18823561 0.055012465
0.43729049 0.18884742 0.054340601
0.43684822 0.18946257 0.053731561
0.43702298 0.1901146 0.053990602
0.43594587 0.19133583 0.052501202
0.43633002 0.1545887 0.051161051
0.43658561 0.15526114 0.051534891
0.43714809 0.15596353 0.052341342
0.43729711 0.15662433 0.052564979
0.4376505 0.15730473 0.053076625
0.43789858 0.15797432 0.053439856
0.43810803 0.1586398 0.053748727
0.43852085 0.15932418 0.054344058
0.43852788 0.15996955 0.054367423
0.43890119 0.16064914 0.054907203
0.43908995 0.16131093 0.055186749
0.43913156 0.16195877 0.05525887
0.43929243 0.16261736 0.055499196
0.43947524 0.16327764 0.055770278
0.43970108 0.16394141 0.056102157
0.43972218 0.16458651 0.05614531
0.43984014 0.16524006 0.056325197
0.43983316 0.16588236 0.056328773
0.43998051 0.16653806 0.056549907
0.4399839 0.16718103 0.056568265
0.4401089 0.16783427 0.056757808
0.44010001 0.16847593 0.056758761
0.44017625 0.16912466 0.05687952
0.44012386 0.16976252 0.05681932
0.44022465 0.17041296 0.056974649
0.4402138 0.17105407 0.056972742
0.44022834 0.17169717 0.057006717
0.44020629 0.17233723 0.056989193
0.44022435 0.17298043 0.057028055
0.44019228 0.17361957 0.056996226
0.44016629 0.17425917 0.05697298
0.44012153 0.17489728 0.056923389
0.44006491 0.17553447 0.056856871
0.4400239 0.17617282 0.056812644
0.4399513 0.17680882 0.056723714
0.4398874 0.17744549 0.056646943
0.43980932 0.17808113 0.056550384
0.43973941 0.1787174 0.056465268
0.43963367 0.17935112 0.056329727
0.43953973 0.17998576 0.056210756
0.43945879 0.18062137 0.056110024
0.43934882 0.18125501 0.055968523
0.43921638 0.18188722 0.055795312
0.43908143 0.18251933 0.055618405
0.43899226 0.18315466 0.055506229
0.43887138 0.18378794 0.055349231
0.4387489 0.18442123 0.055189967
0.43870962 0.18506001 0.055148005
0.43851429 0.18568876 0.054886103
0.43852645 0.18633091 0.05491662
0.43836439 0.18696202 0.054701567
0.43780506 0.18756869 0.053927064
0.43783486 0.18821217 0.053982377
0.43758154 0.18883844 0.053638816
0.43703842 0.1894477 0.052887201
0.43702698 0.19008902 0.052884221
0.43700635 0.15396258 0.050982475
0.43712074 0.15462099 0.051157713
0.43746191 0.15530178 0.05165267
0.43800741 0.15600224 0.052435994
0.43815953 0.15666308 0.05266428
0.43840116 0.15733236 0.053018928
0.43880212 0.15801659 0.053598046
0.43890494 0.15867151 0.053756714
0.43926561 0.15935075 0.054279208
0.43930089 0.15999861 0.054342628
0.43961138 0.16067213 0.054794312
0.43979472 0.16133326 0.055066466
0.43983066 0.16198044 0.055130839
0.44008064 0.16264705 0.05549705
0.44011396 0.16329357 0.055557609
0.44033432 0.16395678 0.055882096
0.44030702 0.16459747 0.055857062
0.44045019 0.16525319 0.056072712
0.440449 0.16589594 0.056084514
0.44060522 0.16655231 0.056318402
0.44060445 0.16719484 0.056331038
0.44073826 0.16784877 0.056533217
0.44066942 0.16848525 0.056449533
0.44073325 0.16913289 0.056553245
0.44067478 0.16977018 0.056484342
0.44075906 0.17041928 0.056616783
0.44074988 0.17106052 0.05661726
0.44075561 0.17170285 0.056638837
0.44074655 0.17234397 0.056639552
