# .PCD v0.7 - Point Cloud Data file format
VERSION 0.7
FIELDS x y z intensity
SIZE 4 4 4 4
TYPE F F F F
COUNT 1 1 1 1
WIDTH 1267
HEIGHT 1
VIEWPOINT 1.2936 0.27 1.2365 -0.174847 0.64582 0.683169 -0.292617
POINTS 1267
DATA ascii
-0.032865889 0.010823165 1.5421791 10
0.099173009 0.010495417 1.543674 10
0.10028353 0.010504485 1.5449973 10
0.11275098 0.010726505 1.5440096 10
0.13742486 0.016428767 1.5445985 10
0.14263016 0.018393813 1.5437169 10
0.14756 0.018708849 1.5445539 10
0.15356021 0.018838897 1.5438898 10
0.15983579 0.01940079 1.5449877 10
-0.096887998 0.023882618 1.5438783 10
-0.082457758 0.024301145 1.5439771 10
-0.075658426 0.023968711 1.5446237 10
-0.072892711 0.024325339 1.5440598 10
-0.068730772 0.024829414 1.5435884 10
-0.063165478 0.024605013 1.543838 10
-0.047253553 0.024840022 1.5444169 10
0.14456733 0.020395126 1.5428836 10
0.14657058 0.020974001 1.5435716 10
0.15437028 0.020041035 1.5417242 10
0.15788975 0.020930894 1.544382 10
-0.096042566 0.026810026 1.5429611 10
-0.092558123 0.027435523 1.5421555 10
-0.087590106 0.028717835 1.5434061 10
-0.082341306 0.02778906 1.5435129 10
-0.077751562 0.027545683 1.5419207 10
-0.072313406 0.026852923 1.5433187 10
-0.067568615 0.02730242 1.5421857 10
-0.062568419 0.02759346 1.5412611 10
-0.057480581 0.028033141 1.5410599 10
-0.052496225 0.028033439 1.54111 10
-0.047605664 0.027645551 1.5416678 10
-0.044495702 0.028578784 1.5434928 10
-0.09505716 0.030648232 1.5440867 10
-0.093315132 0.032492306 1.5420326 10
-0.086311072 0.030624816 1.5411167 10
-0.082473956 0.031103773 1.5414459 10
-0.077454545 0.031412106 1.5410898 10
-0.073983409 0.031588249 1.5402068 10
-0.06043645 0.030238234 1.540969 10
-0.057360273 0.030232696 1.5407116 10
-0.052586991 0.030229742 1.5405977 10
-0.049866669 0.030232172 1.5407411 10
-0.09161853 0.036284816 1.5417682 10
-0.088767707 0.039349623 1.5416192 10
0.071375594 0.036706645 1.5406498 10
-0.096674383 0.043888986 1.5436568 10
-0.093310185 0.044459246 1.5441846 10
-0.087135747 0.040862106 1.5429306 10
0.069324583 0.044537835 1.5404634 10
-0.12760974 0.046570744 1.5448972 10
-0.096585914 0.04682675 1.5423203 10
-0.092228293 0.047440886 1.5429214 10
-0.088419572 0.048746053 1.5440013 10
-0.07927604 0.045290086 1.542732 10
-0.057071652 0.049354661 1.5419952 10
-0.052607864 0.04932484 1.5410984 10
-0.048904199 0.049369659 1.5425264 10
-0.09751489 0.05253417 1.5422882 10
-0.092282631 0.051271278 1.5412967 10
-0.086904816 0.051957924 1.5422606 10
-0.082804836 0.05338661 1.5435358 10
-0.076958582 0.053737164 1.5441043 10
-0.073151387 0.054203764 1.543962 10
-0.056524932 0.050506175 1.5438329 10
-0.052681662 0.050759427 1.5432534 10
-0.049297053 0.050701775 1.5441257 10
-0.10524079 0.056229949 1.5429167 10
-0.10275994 0.057762418 1.5428438 10
-0.097232975 0.056360923 1.5412741 10
-0.081757508 0.05644827 1.5413471 10
-0.07807637 0.057077933 1.5422174 10
-0.073990487 0.05569718 1.5427421 10
-0.079841934 0.060214408 1.5403676 10
-0.013110833 0.063052431 1.543555 10
-0.16144276 0.074612916 1.5406849 10
-0.1622806 0.076481991 1.5405056 10
-0.010366584 0.079660416 1.5411624 1
-0.0094626062 0.077313215 1.541958 1
-0.0094648218 0.080286682 1.542277 1
0.093311168 -0.041402385 1.5468868 10
0.09554486 -0.04008738 1.5456408 10
0.08833354 -0.037236124 1.5476245 10
0.092481792 -0.037402943 1.5466919 10
0.096046299 -0.038578823 1.5468425 10
0.084100544 -0.030578326 1.5490701 10
0.088111721 -0.032322325 1.5483326 10
0.09116479 -0.033966918 1.5472522 10
0.019721676 -0.025101837 1.5499277 10
0.021772915 -0.025097234 1.549637 10
0.07374572 -0.027060596 1.5495603 10
0.077583902 -0.02640469 1.5479472 10
0.080571577 -0.02643333 1.5471256 10
0.013420721 -0.021022245 1.5491881 10
0.017403882 -0.020919884 1.548358 10
0.022908077 -0.022726463 1.5487754 10
0.026345583 -0.021800956 1.5466686 10
0.073012792 -0.02125066 1.5477084 10
0.07750643 -0.022725603 1.5476358 10
0.080773674 -0.024144305 1.5466379 10
0.0094391648 -0.015497139 1.5489728 10
0.012903575 -0.017344099 1.5485827 10
0.017647987 -0.017545301 1.5484071 10
0.022044791 -0.017664112 1.5467499 10
0.027298801 -0.018077184 1.5462224 10
0.038142852 -0.017938618 1.5467781 10
-0.029598104 -0.010022308 1.5495501 10
-0.021370983 -0.010956209 1.5490375 10
-0.0074138446 -0.010608049 1.5475985 10
-0.0023516926 -0.011028084 1.5465188 10
0.0022663735 -0.011663124 1.5471594 10
0.0072705746 -0.012999713 1.5477704 10
0.012577665 -0.013017403 1.5465652 10
0.017479379 -0.013046714 1.5464258 10
0.022155045 -0.013944734 1.5459312 10
0.038120765 -0.014783905 1.5458969 10
0.052859895 -0.010213226 1.5486403 10
0.11001891 -0.011383068 1.5472436 7
-0.040719651 -0.005738975 1.5491682 10
-0.030852709 -0.0066763144 1.5480736 10
-0.028192295 -0.0066735302 1.5490034 10
-0.022484157 -0.0071527208 1.5483966 10
-0.017734677 -0.0072744433 1.5479456 10
-0.012271279 -0.0070107155 1.5460651 10
-0.0076786764 -0.0076560131 1.5466248 10
-0.002451564 -0.0075686481 1.5466208 10
0.002314033 -0.0076899133 1.5460426 10
0.0053177988 -0.0086264564 1.545074 10
0.044978082 -0.0086365594 1.5466969 10
0.04853395 -0.0074842302 1.5476949 10
0.053206507 -0.0074935155 1.5483762 10
0.055531453 -0.0068217036 1.5485872 10
0.11195128 -0.0086358814 1.545554 7
0.13311134 -0.0068452018 1.5477395 10
-0.056982215 -0.0012212398 1.546083 10
-0.053395301 -0.0012850449 1.5473096 10
-0.041822258 -0.0022697228 1.5480243 10
-0.039001919 -0.0035632928 1.5499194 10
-0.031480968 -0.002623033 1.5469017 10
-0.027980749 -0.0027107245 1.5474385 10
-0.02307 -0.0031005612 1.5474367 10
-0.016541725 -0.0024794287 1.5455585 10
-0.012185658 -0.0040165493 1.5455508 10
-0.0097138379 -0.0041892533 1.5462503 10
-0.00082922116 -0.0045320462 1.546608 10
0.0017102364 -0.004240694 1.5472796 10
0.053143803 -0.0020694898 1.5455245 10
0.05541293 -0.0023653449 1.5452805 10
0.13317327 -0.0019159516 1.5475558 10
-0.060585376 0.0032203456 1.547731 10
-0.05699455 0.00093743857 1.5456383 10
-0.052543614 0.0020663193 1.5469913 10
-0.047164794 0.0015258108 1.5479305 10
-0.04162636 0.0021920265 1.546829 10
-0.037736982 0.0035539053 1.546201 10
-0.031666562 0.00093766989 1.545447 10
-0.02883897 0.00093770825 1.5455929 10
-0.024744041 0.00059614109 1.5458647 10
0.1284034 0.0033116757 1.547506 10
0.13231091 0.0020928092 1.5485519 10
0.14313923 0.00402446 1.5496564 10
0.14675675 0.0041963281 1.5497751 10
-0.06235889 0.0083328811 1.5481502 10
-0.057604671 0.0076104468 1.547317 10
-0.052704301 0.007674932 1.5480564 10
-0.041141707 0.005722153 1.5457311 10
-0.038257867 0.0055262977 1.5455645 10
-0.032515027 0.0066397334 1.5471225 10
0.10298471 0.0079403911 1.5484773 10
0.11424166 0.0093705384 1.5456867 10
0.11742355 0.0077233105 1.5477071 10
0.12253274 0.006281618 1.548245 10
0.12657331 0.0074863606 1.5494361 10
0.1338464 0.006423546 1.549405 10
0.13763845 0.007763891 1.5489405 10
0.1420619 0.0081486851 1.5490011 10
0.14666916 0.0074407454 1.5494109 10
0.15182731 0.0084787775 1.5489302 10
0.16414838 0.0090519795 1.5490528 10
-0.06129634 0.011438859 1.5483893 10
-0.057554837 0.012391562 1.5476207 10
-0.053251546 0.012298148 1.5483036 10
0.10167163 0.011113872 1.548278 10
0.11379135 0.010852627 1.5457659 10
0.11713219 0.011110176 1.5486243 10
0.12841901 0.011980171 1.5485831 10
0.13230836 0.012967519 1.5491458 10
0.13763869 0.013927893 1.5488485 10
0.1424804 0.012851641 1.5484291 10
0.14760165 0.012957616 1.5488703 10
0.15226881 0.012915748 1.5489962 10
0.15597935 0.014429387 1.5497998 10
0.16324416 0.012692483 1.5484021 10
-0.098667026 0.018982263 1.548942 10
-0.088047549 0.018895401 1.5494435 10
-0.080639042 0.019099094 1.5493621 10
-0.076764874 0.019048082 1.5492364 10
-0.073806152 0.018932471 1.5498133 10
-0.066090569 0.019273374 1.5497332 10
-0.06455604 0.019446861 1.5499166 10
-0.055630185 0.015329449 1.5495045 10
-0.05460722 0.015330727 1.5496407 10
0.13441259 0.015322816 1.5480063 10
0.13808475 0.015991639 1.5464047 10
0.14275685 0.016335517 1.5464973 10
0.14739554 0.016874772 1.5470519 10
0.15266551 0.016656691 1.5481005 10
0.15754689 0.017427191 1.5483346 10
0.16139337 0.016832186 1.5471309 10
-0.098313913 0.022151506 1.5469638 10
-0.087216482 0.02278842 1.5484289 10
-0.082561642 0.022510804 1.5477252 10
-0.077692665 0.022393333 1.5464659 10
-0.072561808 0.021819556 1.5467417 10
-0.06741906 0.022510579 1.548484 10
-0.061923124 0.022906471 1.5480971 10
-0.058396202 0.024079848 1.549144 10
-0.051880367 0.024075063 1.5492421 10
-0.048371546 0.023690458 1.5474235 10
0.14614336 0.020082694 1.5450851 10
0.15760539 0.02033372 1.5466315 10
-0.097172 0.027690351 1.5470973 10
-0.090333842 0.026224967 1.5451357 10
-0.087505482 0.026464349 1.5463923 10
-0.08436814 0.026718145 1.5460694 10
-0.077367865 0.025547022 1.5456171 10
-0.060611472 0.025541719 1.5454519 10
-0.057266667 0.025836693 1.5482634 10
-0.052946795 0.025807971 1.5478343 10
-0.049383629 0.02556541 1.5469697 10
0.15751633 0.028366582 1.5491068 10
-0.09554942 0.032424655 1.5473073 10
-0.09455812 0.033787999 1.5470899 10
-0.12481172 0.039994087 1.5484377 10
-0.096320875 0.038244065 1.5482157 10
-0.092926137 0.039087165 1.548696 10
-0.089436173 0.039950788 1.5472825 10
-0.13008304 0.044718485 1.545828 10
-0.12692498 0.04302609 1.5472431 10
-0.12287331 0.04267697 1.5483694 10
-0.096171044 0.041469056 1.5476706 10
-0.092402361 0.042401791 1.548081 10
-0.088448882 0.043142408 1.5494252 10
-0.081898794 0.044735972 1.5471448 10
-0.13014878 0.045425523 1.546605 10
-0.12696992 0.047117244 1.5459925 10
-0.12233657 0.047501989 1.547466 10
-0.11896396 0.048823878 1.5496479 10
-0.097913109 0.048126452 1.5459226 10
-0.092829965 0.046746872 1.5456041 10
-0.087237947 0.047063258 1.5469064 10
-0.082434878 0.047572792 1.5478052 10
-0.07782907 0.048222139 1.5478716 10
-0.073217839 0.049060833 1.5483603 10
-0.060436923 0.049599227 1.5496101 10
-0.059684247 0.049543165 1.5478646 10
-0.046333745 0.049538277 1.5478135 10
-0.043951008 0.04955129 1.5482359 10
-0.11874093 0.050311912 1.5497123 10
-0.10085685 0.054394215 1.5490447 10
-0.098563783 0.052622639 1.5453602 10
-0.088285729 0.050146848 1.5450649 10
-0.081875093 0.051155683 1.5458863 10
-0.077694573 0.051497832 1.5460801 10
-0.072316371 0.051770303 1.5469455 10
-0.068137079 0.052493442 1.5485284 10
-0.062419977 0.052115221 1.5496694 10
-0.05862058 0.051323481 1.5475551 10
-0.046802405 0.050900806 1.5463052 10
-0.044034302 0.050832678 1.5481507 10
-0.037143901 0.054398555 1.5497972 10
-0.10202277 0.056364443 1.5466665 10
-0.098761678 0.055400126 1.5484428 10
-0.030235136 0.056347791 1.5468825 10
-0.028214693 0.056866363 1.5485935 10
-0.012452398 0.062034041 1.5465423 10
-0.0080064498 0.076490358 1.5460118 1
0.088231556 -0.042789873 1.5538644 10
0.0909793 -0.04162154 1.5519341 10
0.083726272 -0.038046259 1.55322 10
0.086881146 -0.03694709 1.552366 10
0.0908629 -0.039597213 1.5533128 10
0.077537008 -0.030347418 1.5548809 10
0.083007053 -0.031937789 1.5529805 10
0.086632572 -0.033835489 1.5517404 10
-0.00014652881 -0.0272412 1.5547035 10
0.0034041302 -0.027700929 1.5547837 10
0.0080980249 -0.027447049 1.5543793 10
0.01251513 -0.026450543 1.553389 10
0.017176745 -0.025883082 1.5513458 10
0.020410754 -0.025449511 1.5502272 10
0.068907239 -0.025543872 1.5533171 10
0.072385907 -0.025967799 1.551044 10
0.07730037 -0.028483441 1.5531961 10
0.081215419 -0.029373029 1.5517937 10
-0.02557721 -0.020370325 1.5549319 10
-0.016442597 -0.020857593 1.5546758 10
-0.00162425 -0.020758452 1.5523721 10
0.0027278974 -0.021586027 1.5527992 10
0.0074020852 -0.021711776 1.5525908 10
0.012444526 -0.022637703 1.5527477 10
0.017789286 -0.022961309 1.5521668 10
0.02142364 -0.021504872 1.550824 10
0.068746559 -0.023987474 1.5540813 10
0.072330236 -0.023211485 1.5517451 10
0.075724505 -0.023977518 1.5506586 10
-0.031201381 -0.016101697 1.5543426 10
-0.026800435 -0.016786631 1.5541006 10
-0.022060309 -0.016744995 1.5540097 10
-0.017967641 -0.017991088 1.5539527 10
-0.012233294 -0.016662573 1.551922 10
-0.0076035117 -0.017409433 1.5525907 10
-0.0025485202 -0.017596019 1.5529093 10
0.002599691 -0.017600181 1.5532141 10
0.0073590879 -0.017635858 1.5525413 10
0.010524882 -0.018654272 1.5520319 10
0.039275467 -0.016204558 1.5510103 10
0.040308837 -0.016892485 1.5511943 10
0.053434569 -0.015549335 1.5539598 10
0.12485868 -0.018297412 1.5528369 10
0.1256593 -0.017168051 1.5542345 10
-0.036056466 -0.010956028 1.552356 10
-0.033278782 -0.01243085 1.5540979 10
-0.027137307 -0.012096282 1.5518726 10
-0.023277046 -0.012832168 1.5535307 10
-0.017222082 -0.0123435 1.5510824 10
-0.012497433 -0.012443273 1.5524447 10
-0.0078237848 -0.013061035 1.5527946 10
-0.0026867413 -0.013581998 1.5521743 10
0.0024587477 -0.013927005 1.5510455 10
0.0068217963 -0.014427894 1.5505977 10
0.044457898 -0.011071229 1.5524063 10
0.048444696 -0.010806878 1.552088 10
0.052264567 -0.012778625 1.5536033 10
0.12704496 -0.012469687 1.5543542 10
-0.037319489 -0.0071444558 1.551749 10
-0.033390883 -0.007301386 1.5536638 10
-0.026822165 -0.0079740742 1.5509343 10
-0.023230681 -0.0079759602 1.5511874 10
-0.016596988 -0.0090015102 1.550806 10
-0.013745152 -0.0091184126 1.5512562 10
0.04948489 -0.0085769212 1.5513127 10
0.051689357 -0.0073823496 1.5518069 10
0.056079604 -0.0072899866 1.5511148 10
0.11460298 -0.0079941293 1.5536718 7
0.11532372 -0.0086840438 1.5541128 7
0.13376866 -0.0082521094 1.5518644 10
0.13648503 -0.0064592543 1.5534551 10
0.14279141 -0.006224019 1.5542735 10
0.14761989 -0.0066267378 1.5544659 10
0.15177996 -0.0056816638 1.5545951 10
-0.037580531 -0.00302442 1.551236 10
-0.034005217 -0.0037751216 1.5513961 10
0.11410886 -0.0027233984 1.5531925 7
0.13475662 -0.0026061309 1.5506588 10
0.13714807 -0.0024591151 1.5534787 10
0.14364347 -0.0028730803 1.5541 10
0.14758554 -0.0024100433 1.5535308 10
0.1523916 -0.0023300298 1.5537088 10
0.15660971 -0.00074108527 1.5545461 10
0.1656342 -0.0038763639 1.5543962 10
-0.061861601 0.0034387789 1.552694 10
-0.050435182 0.0029989567 1.5513048 10
-0.048204999 0.0027720679 1.5520598 10
-0.03989704 0.00025513922 1.5504745 10
0.12952228 0.0043711369 1.5510546 10
0.1327482 0.0027293402 1.5511844 10
0.13759424 0.0022869555 1.5514196 10
0.14261666 0.0022829243 1.5519302 10
0.14745277 0.0021441067 1.5511893 10
0.1523595 0.0023139631 1.5526068 10
0.15727735 0.0023152786 1.5535721 10
0.16128498 0.0029224136 1.5544815 10
-0.061752174 0.0059714764 1.5512487 10
-0.050571062 0.0059356764 1.5504591 10
-0.048808333 0.0071155294 1.5514646 10
0.10431515 0.0088993683 1.5510502 10
0.10601791 0.0071209171 1.5521904 10
0.11929598 0.0089643365 1.5502908 10
0.12262376 0.0087154033 1.5506973 10
0.12783028 0.0074373386 1.5504379 10
0.1322913 0.0075188139 1.5512927 10
0.13749306 0.0073908702 1.5510378 10
0.14289494 0.0068090358 1.5511231 10
0.14796503 0.0074715228 1.5506365 10
0.15263084 0.0073136883 1.5511154 10
0.15774806 0.0075424076 1.5521784 10
0.16243568 0.0072067534 1.5532289 10
-0.10048118 0.014347119 1.5540287 10
-0.092243016 0.014299584 1.5542911 10
-0.085708156 0.014347982 1.5542762 10
-0.08432056 0.014689529 1.5540558 10
-0.062300716 0.013324285 1.5514739 10
-0.058417857 0.014656196 1.5507517 10
-0.050893545 0.013249195 1.5513299 10
-0.049567528 0.012615704 1.552763 10
0.10340034 0.010772146 1.5507149 10
0.11949737 0.01122735 1.5502297 10
0.12279012 0.011450714 1.5507125 10
0.12601037 0.011856548 1.5508773 10
0.13363862 0.01140195 1.5504719 10
0.13758942 0.011563188 1.5506276 10
0.14192598 0.011000368 1.5501547 10
0.14718854 0.011167432 1.5510658 10
0.15365484 0.011643734 1.5503886 10
0.15778632 0.012488481 1.5507708 10
0.1614465 0.012282684 1.551258 10
-0.10034737 0.01604417 1.5519562 10
-0.096563868 0.017769463 1.5527984 10
-0.091986284 0.017827092 1.5528489 10
-0.087205634 0.017676907 1.5526025 10
-0.082762927 0.017400738 1.5521593 10
-0.078201301 0.017839761 1.5522587 10
-0.072166912 0.017781414 1.551066 10
-0.067782052 0.017793426 1.5524344 10
-0.062349219 0.017577518 1.5534986 10
-0.057616197 0.017534919 1.5522428 10
-0.052362975 0.01741533 1.5522 10
-0.049111523 0.017941827 1.5542554 10
0.15122646 0.018579658 1.5527339 10
0.15967731 0.015347808 1.5501101 10
0.16060491 0.015577725 1.5502144 10
-0.095481373 0.020493854 1.5510125 10
-0.092285722 0.020617828 1.5517875 10
-0.088402048 0.021265343 1.5505141 10
-0.082429081 0.020519979 1.5507919 10
-0.077142447 0.020366846 1.5502628 10
-0.070813172 0.020157928 1.5518342 10
-0.068034314 0.020147527 1.5510582 10
-0.063307278 0.021483529 1.5511496 10
-0.057187285 0.021752061 1.551461 10
-0.052590203 0.022237372 1.5514072 10
-0.04848709 0.02124539 1.5526969 10
0.1590271 0.028328333 1.5523542 10
0.16016777 0.027784031 1.5548389 10
-0.095510669 0.034568958 1.5514365 10
-0.095332064 0.036527421 1.5529971 10
-0.093340777 0.03755337 1.5512183 10
-0.12065414 0.041865438 1.5511975 10
-0.1184869 0.043963619 1.5526106 10
-0.095493913 0.042453848 1.5511224 10
-0.086287081 0.043300379 1.5501517 10
-0.08392211 0.044555821 1.5503824 10
-0.13113736 0.047889378 1.5539767 10
-0.12788878 0.049100626 1.5510249 10
-0.11767124 0.047427803 1.5519829 10
-0.11358397 0.049769752 1.5542895 10
-0.07076171 0.049175367 1.5505604 10
-0.067743957 0.049682867 1.5521574 10
-0.041445002 0.04946382 1.5526761 10
-0.038873278 0.049474318 1.5539148 10
-0.11725664 0.050410911 1.5527897 10
-0.11359469 0.050462224 1.5544314 10
-0.10054446 0.053816389 1.5521648 10
-0.099597514 0.053768773 1.5507969 10
-0.066530563 0.050773203 1.5505186 10
-0.06274277 0.051177315 1.5509279 10
-0.041788705 0.051720794 1.5526778 10
-0.037430953 0.052241996 1.5537581 10
-0.032503109 0.052883375 1.5531499 10
-0.02785464 0.053211764 1.5540161 10
-0.022722129 0.053963631 1.5542612 10
-0.019390112 0.054567277 1.5546794 10
-0.10197583 0.056157477 1.5503983 10
-0.099134423 0.057515889 1.5515838 10
-0.032401647 0.055381238 1.5523876 10
-0.026730396 0.056111448 1.5529822 10
-0.022201115 0.056430105 1.5534853 10
-0.018614788 0.057883948 1.5533646 10
-0.098867573 0.060536381 1.5527644 10
-0.016632397 0.06037885 1.5538162 10
0.079459637 -0.043180898 1.5587904 10
0.08315292 -0.042573355 1.558162 10
0.086859114 -0.041325357 1.5570031 10
0.078104727 -0.037274908 1.5585573 10
0.081920788 -0.036898777 1.5565742 10
0.087660939 -0.039702754 1.5575 10
0.077909827 -0.032001536 1.5577427 10
0.081824213 -0.0338904 1.5567265 10
0.12160399 -0.030969527 1.5595567 10
-0.015286816 -0.025214991 1.5569172 10
-0.012042257 -0.025656914 1.5568902 10
-0.0075846231 -0.026168443 1.5569464 10
-0.002715898 -0.026353966 1.5560384 10
0.002578042 -0.026151715 1.5559719 10
0.0070132446 -0.026047993 1.5562404 10
0.010511063 -0.025193252 1.5555927 10
0.063434407 -0.025771189 1.5590309 10
0.067687757 -0.025922852 1.5577375 10
0.077225432 -0.029328084 1.5555384 10
0.12359613 -0.028035244 1.5594338 10
0.13329318 -0.025421262 1.5597428 10
0.13544875 -0.025286395 1.5598943 10
-0.021783102 -0.021267574 1.5571786 10
-0.017354403 -0.022502258 1.5571712 10
-0.012527491 -0.022449797 1.5561153 10
-0.0077122827 -0.022447793 1.5560378 10
-0.0028346102 -0.022952458 1.5566069 10
0.0023627842 -0.023997372 1.5567652 10
0.0074219843 -0.02417925 1.5567396 10
0.011198741 -0.024161901 1.555619 10
0.064057142 -0.023781039 1.557883 10
0.06716805 -0.022940138 1.5567737 10
0.070054725 -0.021087263 1.5567715 10
0.12760295 -0.022078967 1.5586629 10
0.13224241 -0.021779926 1.5593125 10
0.13763052 -0.023088848 1.559517 10
0.14103593 -0.020907618 1.5592667 10
0.15997189 -0.020458722 1.559657 10
-0.030735068 -0.01555906 1.5550752 10
-0.02739016 -0.017279964 1.5561916 10
-0.0230271 -0.018720958 1.5572718 10
-0.016958473 -0.017404549 1.5555315 10
-0.01290675 -0.018976575 1.5562634 10
-0.008745702 -0.019699596 1.5563169 10
0.042243358 -0.016291514 1.5593145 10
0.053512342 -0.01626013 1.5562193 10
0.12780184 -0.01767236 1.5582436 10
0.13254134 -0.017666103 1.5588025 10
0.13729098 -0.01717962 1.5586673 10
0.14279558 -0.017533835 1.5590463 10
0.14708732 -0.016564904 1.5590135 10
0.1509963 -0.015625084 1.5598328 10
0.15996879 -0.019077469 1.5596313 10
0.16153148 -0.017185686 1.559141 10
-0.031328782 -0.012204913 1.5556842 10
-0.02909659 -0.01390827 1.5563046 10
-0.020867079 -0.014380863 1.5551875 10
-0.019053049 -0.014874113 1.5554106 10
0.044175893 -0.013757185 1.5585924 10
0.047361102 -0.012263403 1.5575882 10
0.052832428 -0.013313459 1.5565014 10
0.12851937 -0.012834454 1.5568628 10
0.13243672 -0.012433378 1.557943 10
0.13758028 -0.012570372 1.5577592 10
0.14248353 -0.012498514 1.5574846 10
0.14726804 -0.012495107 1.5569781 10
0.15193029 -0.012037566 1.5584531 10
0.15769322 -0.01179562 1.5593054 10
0.16257133 -0.012032915 1.5579212 10
0.16544774 -0.010790531 1.5591273 10
-0.032001805 -0.0089140357 1.5554026 10
0.11606263 -0.0065481514 1.5571022 7
0.13081044 -0.0093984352 1.558207 10
0.13816932 -0.007920553 1.5565834 10
0.14202732 -0.0082144672 1.5561448 10
0.14749269 -0.0078220051 1.5558288 10
0.1528531 -0.0076425048 1.556083 10
0.15760431 -0.0073268656 1.5567992 10
0.16246876 -0.0073289918 1.557098 10
0.16554944 -0.0073291468 1.5568368 10
0.11471414 -0.0031857053 1.555185 7
0.11565048 -0.0037398275 1.5566649 7
0.13917096 -0.0021551752 1.5551968 10
0.1419021 -0.0022568633 1.5553578 10
0.14881369 -0.0045646941 1.5551122 10
0.15347716 -0.0043933839 1.5552064 10
0.15770319 -0.0028985413 1.5560772 10
0.16240965 -0.0025035811 1.5565329 10
0.16519783 -0.0027334355 1.5567833 10
0.14363298 0.00025342067 1.5550014 10
0.16326481 0.0016873139 1.5556388 10
0.16510642 0.00254816 1.5559243 10
-0.10044569 0.0095644118 1.558825 10
-0.094618335 0.0099127823 1.5594354 10
-0.088822082 0.0093606217 1.5594485 10
-0.1005615 0.011734266 1.557054 10
-0.096466191 0.014441965 1.5590175 10
-0.09258008 0.012638081 1.5577145 10
-0.087914072 0.012849269 1.5578139 10
-0.08224114 0.013581056 1.5583919 10
-0.077981621 0.014448851 1.5590657 10
-0.064259678 0.013014443 1.5593727 10
-0.048957031 0.013322053 1.5551783 10
-0.096031412 0.015953939 1.5566027 10
-0.093673781 0.016675156 1.5560144 10
-0.087522738 0.015936751 1.5559653 10
-0.081353694 0.015400627 1.5564852 10
-0.077097677 0.016056327 1.5569075 10
-0.072855487 0.015567707 1.5579817 10
-0.067022249 0.015817272 1.5581275 10
-0.064531431 0.016098438 1.557601 10
-0.048484139 0.016603094 1.5565524 10
0.15187845 0.025082571 1.5582271 10
0.16149744 0.026685588 1.5576864 10
-0.11727813 0.043403398 1.5561552 10
-0.11545894 0.047426682 1.5563837 10
-0.11367083 0.048125282 1.557852 10
-0.03647228 0.04904151 1.5571876 10
-0.032274466 0.048592642 1.5587399 10
-0.027893107 0.0484441 1.5580214 10
-0.11549023 0.050539542 1.5567856 10
-0.11286297 0.050902661 1.5573984 10
-0.10158527 0.052920204 1.5581295 10
-0.099930838 0.052572001 1.5559974 10
-0.032118525 0.050677676 1.5571995 10
-0.027204666 0.051076367 1.5569823 10
-0.023161352 0.052216742 1.5581732 10
-0.01941083 0.053937383 1.5563462 10
-0.031089624 0.056658763 1.5554166 10
-0.023281736 0.058299575 1.5558323 10
-0.016999356 0.059087433 1.556008 10
-0.014602827 0.060852505 1.5571483 10
0.074341811 -0.041729812 1.5647783 10
0.077667139 -0.041582946 1.5630919 10
0.081867337 -0.041072156 1.5616212 10
0.10864504 -0.042186964 1.5630655 10
0.11161376 -0.042664152 1.5646662 10
0.068677582 -0.035396907 1.5636781 10
0.072516382 -0.036298092 1.5620216 10
0.077045172 -0.037372444 1.5617392 10
0.082377978 -0.039812192 1.5618652 10
0.11207847 -0.039195858 1.5644042 10
0.1179342 -0.036717113 1.5631423 10
0.12167478 -0.03667387 1.5644929 10
0.12771909 -0.036643747 1.56493 10
0.13165653 -0.035892475 1.5648806 10
0.14327894 -0.036046971 1.5648274 10
0.1457797 -0.035339434 1.5646229 10
0.064195782 -0.033655729 1.5649501 10
0.067633346 -0.033688273 1.5644181 10
0.072636448 -0.032667145 1.5636505 10
0.076598987 -0.033842415 1.56146 10
0.11879963 -0.033675753 1.5615225 10
0.12233246 -0.032450296 1.5631825 10
0.12565997 -0.030480336 1.5644782 10
0.13934767 -0.03075476 1.5640634 10
0.14126728 -0.031401213 1.564702 10
0.14827788 -0.033229284 1.5644382 10
0.1517508 -0.031301077 1.5639871 10
0.063625716 -0.027205007 1.5632634 10
0.067616582 -0.027469914 1.5628273 10
0.070414245 -0.02915368 1.5647291 10
0.12456206 -0.028227326 1.561536 10
0.12755767 -0.027156357 1.563599 10
0.13241558 -0.026433393 1.5624292 10
0.13773164 -0.027203029 1.5628482 10
0.14231616 -0.027343681 1.5639894 10
0.14749192 -0.027087269 1.5644141 10
0.15259872 -0.027251063 1.5639236 10
0.15619974 -0.02632341 1.5624287 10
0.061631337 -0.024070831 1.564319 10
0.06798207 -0.021655824 1.5605574 10
0.12809569 -0.024389161 1.5615319 10
0.13242821 -0.022861024 1.56072 10
0.13733071 -0.02215486 1.5607808 10
0.14275399 -0.022791941 1.5622146 10
0.14760943 -0.022649385 1.5627686 10
0.15270659 -0.022578266 1.5631586 10
0.15724152 -0.022390798 1.5620506 10
0.16031276 -0.02116394 1.5607287 10
0.043663371 -0.016940156 1.5629598 10
0.046735309 -0.016620826 1.5642817 10
0.052272517 -0.017999733 1.5628833 10
0.12945287 -0.018936526 1.5601212 10
0.13028604 -0.01873019 1.5601671 10
0.13852648 -0.01921767 1.5603242 10
0.14150789 -0.018667251 1.5604134 10
0.14799629 -0.018784983 1.5608562 10
0.15257274 -0.017759405 1.5615071 10
0.15738788 -0.017717196 1.5614806 10
0.16043107 -0.016932249 1.5607706 10
0.044528034 -0.014237562 1.5608703 10
0.047440544 -0.014093308 1.5628656 10
0.050546456 -0.014725682 1.5638099 10
0.15358473 -0.014249861 1.5603698 10
0.15680173 -0.014337188 1.560394 10
0.16088118 -0.01417421 1.560294 10
-0.099697411 0.0040596845 1.5633212 10
-0.10025098 0.0071615772 1.5611646 10
-0.097822934 0.0082034906 1.562389 10
-0.092717886 0.0084318332 1.5633316 10
-0.087190948 0.0085152229 1.5618248 10
-0.082313038 0.0092349127 1.5616333 10
-0.078055531 0.0087428112 1.5627017 10
-0.072639696 0.0099253524 1.5616071 10
-0.067896746 0.0099385967 1.563727 10
-0.097325124 0.012219361 1.5620447 10
-0.091863193 0.010846493 1.5614839 10
-0.086981289 0.011113689 1.5608501 10
-0.082563803 0.011944961 1.560711 10
-0.07730516 0.012172399 1.5607313 10
-0.072603561 0.012681376 1.5608178 10
-0.067454033 0.012640525 1.5604585 10
-0.064524993 0.01359626 1.5602274 10
-0.098261118 0.015807416 1.5624764 10
0.16286331 0.02337434 1.5644376 10
0.16302679 0.025153352 1.5624146 10
-0.11538841 0.043743137 1.5601124 10
-0.1142588 0.043733008 1.5625184 10
-0.11221901 0.047453694 1.5624113 10
-0.10130285 0.047677059 1.5648133 10
-0.031212682 0.046524845 1.5616521 10
-0.028439112 0.046504922 1.5609953 10
-0.023702662 0.049316339 1.5611328 10
-0.16036145 0.054753106 1.5647866 10
-0.14765476 0.054288335 1.5649731 10
-0.1420334 0.052180581 1.5642118 10
-0.11067874 0.05082744 1.5630785 10
-0.10701548 0.051570453 1.5636737 10
-0.10257149 0.051187269 1.5632579 10
-0.02188261 0.051291578 1.5609276 10
-0.16038096 0.057308201 1.5629083 10
-0.15831456 0.058737088 1.5632857 10
-0.1605404 0.060765572 1.5619764 10
-0.15875748 0.061080299 1.5612155 10
0.072673969 -0.040856913 1.5659138 10
0.075302728 -0.04059707 1.5655748 10
0.11401643 -0.041909833 1.5655558 10
0.11762606 -0.042364325 1.5663043 10
0.12246769 -0.042337116 1.5667731 10
0.12731001 -0.041992981 1.5667119 10
0.13234764 -0.041566916 1.5661243 10
0.13616571 -0.041155308 1.566071 10
0.064402319 -0.037930012 1.5699621 10
0.067838952 -0.037882127 1.5687227 10
0.072362982 -0.038857464 1.5672776 10
0.07631015 -0.039523933 1.5657301 10
0.11400811 -0.039310254 1.5661705 10
0.11771481 -0.039276093 1.5675056 10
0.1229964 -0.038090348 1.567001 10
0.1273506 -0.037623987 1.5666527 10
0.13267538 -0.037683934 1.5666296 10
0.13757756 -0.037196659 1.5660015 10
0.14154889 -0.036353227 1.5659255 10
0.058742914 -0.030633425 1.5672055 10
0.062917918 -0.031784702 1.5667738 10
0.067709595 -0.031604826 1.5661927 10
0.071833119 -0.031591147 1.5654677 10
0.07533364 -0.030222742 1.5662742 10
0.12378867 -0.033855814 1.5653341 10
0.12745568 -0.032510452 1.5656689 10
0.13251336 -0.032314911 1.5660123 10
0.13751686 -0.032491453 1.5660595 10
0.14299372 -0.032662742 1.5653757 10
0.14695886 -0.031801444 1.5655112 10
0.15063076 -0.030696699 1.5655619 10
0.053375714 -0.026348719 1.5681304 10
0.057471402 -0.027395239 1.568327 10
0.061794367 -0.027766405 1.5681068 10
0.066688403 -0.029017197 1.5658847 10
0.072412938 -0.029141981 1.5657634 10
0.12897469 -0.029179279 1.5651824 10
0.13241594 -0.028683141 1.5653338 10
0.1364585 -0.029232552 1.5652303 10
0.14422494 -0.029529992 1.5650904 10
0.14646067 -0.029334204 1.5651532 10
0.15097857 -0.029260432 1.5653356 10
0.034527924 -0.021941757 1.5689405 10
0.036621753 -0.021810895 1.5695021 10
0.041450527 -0.020894907 1.5684338 10
0.048306983 -0.021638079 1.5677742 10
0.052552775 -0.022632807 1.5686294 10
0.05692571 -0.023706838 1.5688844 10
0.0611559 -0.024688169 1.5669136 10
0.043246254 -0.019147577 1.5673008 10
0.047733799 -0.017880948 1.566718 10
0.05140559 -0.017655931 1.5661064 10
-0.036925059 -0.014144987 1.5698097 10
0.048289038 -0.014797524 1.5653443 10
-0.096247859 -0.00066826679 1.5691308 10
-0.093156077 -0.00043691107 1.5696862 10
-0.096857846 0.0025851859 1.5673441 10
-0.09282358 0.0030632818 1.5683467 10
-0.087243296 0.0027461189 1.5684328 10
-0.084465802 0.0040756334 1.5695409 10
-0.076143116 0.0034167327 1.5681595 10
-0.074054383 0.0026874298 1.5696268 10
-0.038997415 0.001299244 1.5694424 10
-0.097019516 0.0057577942 1.5660909 10
-0.092112824 0.0064682867 1.566823 10
-0.08710745 0.0063580466 1.5675043 10
-0.082760029 0.0066285939 1.5680598 10
-0.076852843 0.0065821684 1.5666387 10
-0.072595462 0.007565436 1.5674587 10
-0.067407556 0.0078636305 1.5675567 10
0.16448331 0.019670328 1.5664053 10
0.16558418 0.019677531 1.5669585 10
0.16410685 0.021431128 1.5661217 10
0.16543829 0.020699697 1.5655754 10
-0.11471874 0.039848298 1.5698819 10
-0.10498741 0.039844766 1.569888 10
-0.11566829 0.042087432 1.5670271 10
-0.11237269 0.042580891 1.5682321 10
-0.108341 0.044300184 1.569777 10
-0.10274196 0.043049544 1.5683465 10
-0.1578096 0.049409542 1.5693653 10
-0.14602497 0.048703417 1.5692505 10
-0.11088472 0.046401326 1.5664225 10
-0.10759529 0.047408782 1.5673323 10
-0.10299343 0.047392044 1.5668395 10
-0.099981092 0.04533473 1.5676371 10
-0.16021112 0.052932143 1.5655924 10
-0.1576529 0.05236106 1.5688987 10
-0.15231462 0.052333836 1.568602 10
-0.14749178 0.05193894 1.567029 10
-0.14300379 0.0513676 1.5668751 10
-0.13902271 0.050960999 1.5693718 10
-0.10774866 0.050215453 1.5652205 10
-0.10054985 0.050127104 1.5656556 10
-0.15722129 0.0564976 1.5667156 10
-0.15306154 0.056156136 1.5672798 10
-0.14929515 0.055075202 1.5676192 10
-0.0063375407 -0.046707362 1.5741187 10
-0.0018493355 -0.045837715 1.5741869 10
0.00054762594 -0.045356601 1.574944 10
-0.0061054276 -0.043540645 1.5733489 10
-0.0024932481 -0.043459911 1.573647 10
0.00054762751 -0.044311378 1.5749308 10
0.059247516 -0.035182782 1.5713716 10
0.06270311 -0.035993807 1.5708944 10
0.066042475 -0.036244079 1.570449 10
0.053784993 -0.030976349 1.5725164 10
0.057538442 -0.032418426 1.5721611 10
0.061486084 -0.033845786 1.5715065 10
0.033247977 -0.025666535 1.5739962 10
0.039282054 -0.025727505 1.5741431 10
0.041412182 -0.026009763 1.573638 10
0.048416723 -0.025968578 1.5726203 10
0.05216996 -0.028286071 1.5731013 10
0.055784173 -0.029628787 1.5717189 10
-0.033565607 -0.020633424 1.5749749 10
0.033783436 -0.024155214 1.5730124 10
0.037662428 -0.023047626 1.5723925 10
0.043544918 -0.022321416 1.5712086 10
0.046903174 -0.023229752 1.5723177 10
-0.041068699 -0.017793616 1.5739998 10
-0.038400777 -0.016223887 1.5722021 10
-0.031402417 -0.019423403 1.5744178 10
0.042764179 -0.019746225 1.5708463 10
-0.038644746 -0.013399135 1.5730232 10
-0.093114153 -0.0053145261 1.5748477 10
-0.0896134 -0.0053133196 1.5745635 10
-0.095618322 -0.0025237442 1.571618 10
-0.092633754 -0.0025251559 1.5726178 10
-0.088562414 -0.0015437176 1.5737178 10
-0.082886942 -0.0019598145 1.5729495 10
-0.071361259 -0.00082350778 1.572331 10
-0.067435659 -0.0016209065 1.5739579 10
-0.06388855 -0.0010757787 1.5743068 10
-0.038056202 -0.00043682638 1.5735624 10
-0.095261559 0.003035346 1.5700402 10
-0.092209868 0.0017507193 1.5715477 10
-0.088039838 0.0018463725 1.5717919 10
-0.082403183 0.0022480935 1.5721551 10
-0.078288235 0.0023797357 1.5730751 10
-0.071841314 0.0022302177 1.5715032 10
-0.067595586 0.0023443906 1.5728154 10
-0.063859187 0.00089660828 1.5735779 10
-0.037829742 0.0011856704 1.5721941 10
-0.092503116 0.0051198988 1.5703946 10
-0.08629477 0.0058174618 1.5712292 10
-0.081217162 0.0051200627 1.5705066 10
-0.079638228 0.0054662516 1.5701959 10
-0.07146351 0.0053181523 1.5704525 10
-0.067236327 0.0054943305 1.5706705 10
-0.12345091 0.03440275 1.5748633 10
-0.11716441 0.034398023 1.5747473 10
-0.10552024 0.034154613 1.5744103 10
-0.10418604 0.033833593 1.5746139 10
-0.13738258 0.039379358 1.5745639 10
-0.1269391 0.037349336 1.5736976 10
-0.1216661 0.036770821 1.5737494 10
-0.11730553 0.037421979 1.5739518 10
-0.11264607 0.037719581 1.5735103 10
-0.10731975 0.037815336 1.5721555 10
-0.1028057 0.038040843 1.5739962 10
-0.099728465 0.038802344 1.5746436 10
-0.1578666 0.043391027 1.5741355 10
-0.14170097 0.043278281 1.5729007 10
-0.13792427 0.043026883 1.5744013 10
-0.13320616 0.042757906 1.5734869 10
-0.12066799 0.040829267 1.5718975 10
-0.1170524 0.041022655 1.5722649 10
-0.11125989 0.040721402 1.5701184 10
-0.10744951 0.042145304 1.5708157 10
-0.10217873 0.041508865 1.5715879 10
-0.099725209 0.041006826 1.5745804 10
-0.15716524 0.047555044 1.5734941 10
-0.15244779 0.048327085 1.5731927 10
-0.1482669 0.047363423 1.5732467 10
-0.1425285 0.04747222 1.5714746 10
-0.13744059 0.047639888 1.57226 10
-0.13435806 0.046400454 1.5738328 10
-0.1556545 0.05266298 1.5700712 10
-0.1418865 0.050296903 1.5702754 10
-0.13772725 0.050300531 1.5704681 10
-0.0053707985 -0.048149042 1.5751398 10
-0.0022949539 -0.048131637 1.5761105 10
0.0016503426 -0.046625778 1.5775827 10
-0.010616486 -0.041275717 1.578687 10
-0.006774087 -0.041195203 1.5775396 10
-0.0018071758 -0.041055683 1.5760103 10
0.0023361472 -0.042260908 1.5782961 10
-0.010606641 -0.03949365 1.5772359 10
-0.0074722553 -0.037414294 1.5777824 10
-0.0022393358 -0.037385676 1.5765923 10
0.0019843043 -0.037621632 1.5781423 10
-0.006346554 -0.033857655 1.5784763 10
-0.002222074 -0.0331145 1.5778333 10
0.0012470466 -0.033945091 1.5787185 10
0.035457153 -0.030818643 1.5794017 10
0.041562442 -0.030990709 1.5792329 10
-0.045532748 -0.025582589 1.5794576 10
-0.03087274 -0.02558447 1.579669 10
0.020335378 -0.028380925 1.5798515 10
0.028285906 -0.026555805 1.5785993 10
0.033158291 -0.02694102 1.5772885 10
0.037110951 -0.027176807 1.5782876 10
0.040920179 -0.028547799 1.5773609 10
-0.045527209 -0.024881115 1.5792685 10
-0.043638386 -0.022312908 1.5778726 10
-0.037353665 -0.022628974 1.5783814 10
-0.032154091 -0.022112377 1.5776243 10
-0.027839912 -0.022788027 1.578181 10
-0.024568055 -0.023120889 1.5784087 10
0.031200536 -0.024828291 1.5760268 10
0.036869306 -0.024626659 1.5758325 10
-0.092347965 -0.015511709 1.5796036 10
-0.042436581 -0.018063344 1.576871 10
-0.0370395 -0.018610958 1.5771971 10
-0.033818558 -0.018011784 1.576525 10
-0.096530996 -0.0113202 1.5784768 10
-0.093525819 -0.012577508 1.579337 10
-0.040807646 -0.013568959 1.5768075 10
-0.039718807 -0.012423671 1.5760248 10
-0.10606308 -0.0055014351 1.5782282 10
-0.10225184 -0.0066801882 1.5781453 10
-0.097934812 -0.0079520484 1.5789808 10
-0.091809191 -0.0069873948 1.5772927 10
-0.087845795 -0.0070726769 1.5785227 10
-0.081178434 -0.0062107295 1.5774083 10
-0.078880981 -0.0074903341 1.5792046 10
-0.06681633 -0.0057927077 1.579044 10
-0.056715857 -0.0053289318 1.5797508 10
-0.054275576 -0.0053292876 1.5798879 10
-0.044130091 -0.0058857603 1.5793039 10
-0.11539386 -0.00044028618 1.5792202 10
-0.11194062 -0.0012777692 1.5783477 10
-0.10754275 -0.0024070283 1.5782779 10
-0.10313375 -0.0032133143 1.5791644 10
-0.099354751 -0.0046330714 1.5798749 10
-0.092105076 -0.0046196794 1.5754696 10
-0.08733353 -0.0031125706 1.5767473 10
-0.081747636 -0.0032286607 1.5766881 10
-0.077762417 -0.0023269954 1.5779464 10
-0.073096417 -0.0021844697 1.5783477 10
-0.067569777 -0.0038281179 1.5779887 10
-0.062352922 -0.0033054422 1.5759257 10
-0.057394966 -0.0038605952 1.5766068 10
-0.052038155 -0.0033721607 1.577433 10
-0.047932718 -0.0028309575 1.5783859 10
-0.044566523 -0.0043929568 1.5782728 10
-0.036158189 -0.0010722871 1.5776763 10
-0.11724717 0.0014897933 1.5795105 10
-0.11285045 0.00079289684 1.579318 10
-0.10843229 0.00095756835 1.5796711 10
-0.080230452 0.00025856771 1.5750031 10
-0.077347122 0.00051206112 1.5756243 10
-0.064213015 0.0023486286 1.575153 10
-0.049350247 0.00025969581 1.5787674 10
-0.036379311 0.0004336283 1.5762668 10
-0.095943876 0.024215331 1.579607 10
-0.10222907 0.027437685 1.5787687 10
-0.096969642 0.026799334 1.5789684 10
-0.094099015 0.025413565 1.5796492 10
-0.15137072 0.034286916 1.5797337 10
-0.13992372 0.03451322 1.5796399 10
-0.12616298 0.034302708 1.5782435 10
-0.12225179 0.034081414 1.5773996 10
-0.11711303 0.033278815 1.5777401 10
-0.11273718 0.033608768 1.5786732 10
-0.10789589 0.033577569 1.5789167 10
-0.10213242 0.032447807 1.5763024 10
-0.09930329 0.032718357 1.5770376 10
-0.15674344 0.038731229 1.5782117 10
-0.15273634 0.037445698 1.5789121 10
-0.14552046 0.039408151 1.5795623 10
-0.14256018 0.03908461 1.5795871 10
-0.13754602 0.037384219 1.5775813 10
-0.13257894 0.037714463 1.5763038 10
-0.12800255 0.03737773 1.5763289 10
-0.12321416 0.037559859 1.5761572 10
-0.11877047 0.037487444 1.5752202 10
-0.11113709 0.035366997 1.5766245 10
-0.10874833 0.035439573 1.5769321 10
-0.10157318 0.035952132 1.5754709 10
-0.09934783 0.036503132 1.5756543 10
-0.15647641 0.042174317 1.5768327 10
-0.15235868 0.042510893 1.5778333 10
-0.14749266 0.0424616 1.5777599 10
-0.14337575 0.041178014 1.578017 10
-0.13620564 0.042183988 1.5754632 10
-0.13216588 0.040754482 1.5757155 10
-0.12840573 0.040270615 1.5771376 10
-0.12332136 0.040127069 1.5761527 10
-0.11846978 0.04095101 1.5766144 10
-0.15614137 0.045761112 1.5753826 10
-0.15320563 0.046052922 1.5754863 10
-0.14723159 0.045580715 1.5753565 10
0.0038100425 -0.045399401 1.5804764 10
0.0086020976 -0.045261029 1.5837835 10
-0.0088703828 -0.042029265 1.5813855 10
0.0047423271 -0.042379268 1.5808065 10
0.0070089246 -0.042207424 1.5820762 10
0.0042948695 -0.036999643 1.5814018 10
0.0068454524 -0.037522621 1.5823845 10
0.042844318 -0.0360232 1.5840051 10
-0.047069181 -0.031263158 1.5841331 10
-0.021516042 -0.030573256 1.5848345 10
-0.019764092 -0.030572444 1.5847986 10
-0.0074551934 -0.032179702 1.5818914 10
-0.0023033933 -0.030783536 1.5806832 10
0.0030072879 -0.032257784 1.5820035 10
0.0063744988 -0.032732867 1.5835654 10
0.022124022 -0.031451032 1.5833682 10
0.027804492 -0.030759932 1.5845921 10
0.03283985 -0.030716483 1.5841526 10
0.037629992 -0.031854872 1.5826621 10
0.041680716 -0.032928038 1.5826809 10
-0.084235489 -0.025674928 1.5847441 10
-0.046001036 -0.028020099 1.5818251 10
-0.04106915 -0.027169529 1.5823809 10
-0.038017046 -0.02683593 1.5823652 10
-0.032548185 -0.027231924 1.5822285 10
-0.027248068 -0.027377378 1.5828495 10
-0.022457432 -0.027657771 1.5836008 10
-0.019352015 -0.027122423 1.5845364 10
-0.011005864 -0.027765188 1.5845957 10
-0.0061001927 -0.029502235 1.5838168 10
-0.002029099 -0.029344544 1.5824006 10
0.0025100221 -0.029414752 1.5828825 10
0.0075494265 -0.029493628 1.5833551 10
0.012039314 -0.029029515 1.5847671 10
0.018214919 -0.02866957 1.583915 10
0.022457408 -0.028446486 1.5822276 10
0.027471783 -0.028727539 1.5825641 10
0.03208378 -0.028729089 1.582217 10
0.038138498 -0.029201755 1.5809786 10
0.040392235 -0.029806459 1.5812601 10
-0.086656086 -0.021505825 1.5830873 10
-0.084699772 -0.02251981 1.5846976 10
-0.042314943 -0.02318955 1.5813074 10
-0.038145378 -0.023288956 1.5810204 10
-0.032714065 -0.023575626 1.5812062 10
-0.026144557 -0.024694473 1.5823421 10
-0.022888692 -0.024397854 1.5812709 10
-0.019406974 -0.024957692 1.584275 10
-0.096502289 -0.016181737 1.5842429 10
-0.091761917 -0.016958013 1.5815225 10
-0.087615788 -0.017239414 1.5825189 10
-0.084706672 -0.01913368 1.5848387 10
-0.043145407 -0.016523985 1.5815722 10
-0.10509071 -0.010238411 1.5819929 10
-0.10186896 -0.011345681 1.5825729 10
-0.098032475 -0.013253274 1.5834473 10
-0.091259435 -0.012073579 1.580617 10
-0.087622069 -0.012340936 1.5826412 10
-0.083037257 -0.011840124 1.5838227 10
-0.076570436 -0.01074793 1.5819104 10
-0.072127789 -0.011514173 1.583531 10
-0.067754321 -0.011962471 1.5846442 10
-0.041323978 -0.011640395 1.583241 10
-0.039960202 -0.010918777 1.5800623 10
-0.11111715 -0.0057306029 1.5824882 10
-0.10716628 -0.0072072572 1.5823101 10
-0.1034023 -0.0088417139 1.5825392 10
-0.096332788 -0.0060320469 1.5802797 10
-0.092915878 -0.0083040874 1.5803627 10
-0.086283527 -0.0084316498 1.5810301 10
-0.083063915 -0.0077886144 1.5821705 10
-0.076559901 -0.0074986615 1.5816118 10
-0.072345488 -0.0073730689 1.5830213 10
-0.067408323 -0.0076219141 1.5824083 10
-0.062574334 -0.006718114 1.5824134 10
-0.057688836 -0.0066191982 1.5831207 10
-0.052458648 -0.0065905051 1.5830257 10
-0.047850534 -0.0066569466 1.5833814 10
-0.042921726 -0.0080251191 1.5821685 10
-0.12001661 -0.0018444196 1.5848519 10
-0.1168374 -0.0022748061 1.5842 10
-0.11289585 -0.0035120426 1.5830345 10
-0.10838673 -0.003415186 1.5815409 10
-0.10150337 -0.0014888984 1.5806695 10
-0.098225072 -0.0033038419 1.5809867 10
-0.07616514 -0.0043532862 1.5802833 10
-0.072476275 -0.0042841779 1.5806276 10
-0.068623535 -0.0044582491 1.5804596 10
-0.047306672 -0.002885025 1.580453 10
-0.12676051 0.0041115 1.5831544 10
-0.12232012 0.0033577892 1.5815704 10
-0.11775224 0.0032191882 1.5816321 10
-0.11243834 0.0032393071 1.5820577 10
-0.10699787 0.0028190266 1.5815926 10
-0.10288613 0.0017628233 1.5823147 10
-0.13054088 0.0051676128 1.5847771 10
-0.12755948 0.0066220541 1.5843034 10
-0.12249266 0.0061176745 1.58383 10
-0.1175061 0.0063187452 1.5838495 10
-0.11232124 0.0063543306 1.5843416 10
-0.10811826 0.0066376766 1.5842893 10
-0.12774692 0.011191173 1.5837907 10
-0.11017327 0.010424172 1.5845889 10
-0.1074136 0.012215907 1.5843614 10
-0.10458261 0.012529224 1.5849122 10
-0.13188986 0.018483888 1.5840958 10
-0.12124897 0.017088762 1.5848913 10
-0.11776978 0.01708754 1.5848277 10
-0.11020067 0.019191541 1.584968 10
-0.1074909 0.019567929 1.5845153 10
-0.10323255 0.019733936 1.5835552 10
-0.14671442 0.024108911 1.5849593 10
-0.14390314 0.022705078 1.584954 10
-0.13890241 0.020587265 1.5840105 10
-0.13223808 0.024594923 1.584888 10
-0.12950599 0.024104513 1.5849693 10
-0.11645048 0.024087394 1.5840478 10
-0.11262133 0.024001051 1.5828077 10
-0.10724271 0.023181321 1.5827374 10
-0.10327215 0.022553159 1.5838637 10
-0.095934995 0.02298942 1.5811105 10
-0.093871005 0.024396889 1.5817057 10
-0.14567488 0.029512357 1.5831864 10
-0.14200203 0.02864307 1.5836246 10
-0.13796434 0.027185157 1.5845054 10
-0.13377936 0.025646631 1.5848415 10
-0.12062839 0.029687578 1.5836184 10
-0.11693873 0.027888989 1.5833838 10
-0.11240202 0.02765682 1.5833117 10
-0.10730007 0.027632691 1.5822333 10
-0.10333885 0.027619312 1.58135 10
-0.15592255 0.034573324 1.5820847 10
-0.15242209 0.03296392 1.583384 10
-0.14724284 0.03270952 1.5819838 10
-0.14241497 0.032410719 1.5829967 10
-0.13767897 0.03286995 1.5831629 10
-0.13238077 0.032905713 1.5832039 10
-0.12775347 0.032348271 1.5831118 10
-0.12260877 0.031814929 1.582806 10
-0.11794417 0.031529125 1.5818425 10
-0.11255441 0.031257428 1.5809271 10
-0.1076769 0.031258281 1.5809908 10
-0.10404009 0.03075074 1.5808831 10
-0.15696467 0.037040688 1.5812649 10
-0.15170199 0.036836542 1.5809491 10
-0.14765935 0.037228644 1.5813069 10
-0.14258601 0.03678748 1.581199 10
-0.13740857 0.03608242 1.5806149 10
-0.13325961 0.035353363 1.5808569 10
0.0092097549 -0.046319291 1.5880346 10
0.0096681314 -0.042530466 1.5864458 10
0.010486149 -0.042196367 1.5889517 10
0.036382854 -0.040851846 1.589286 10
0.042394139 -0.041193116 1.5888546 10
-0.036693014 -0.03559066 1.5897357 10
0.0092210099 -0.037232358 1.5862888 10
0.010504521 -0.037802305 1.5892242 10
0.022574065 -0.036453888 1.588432 10
0.025494929 -0.035582844 1.5894592 10
0.033601977 -0.03636105 1.5883168 10
0.037953332 -0.036878861 1.5880256 10
0.042239714 -0.037541516 1.5874199 10
-0.081628501 -0.030655075 1.5885683 10
-0.047168892 -0.033435859 1.5874779 10
-0.041795302 -0.032509632 1.5883825 10
-0.037360094 -0.032092463 1.5882343 10
-0.032154735 -0.031228073 1.5883735 10
-0.026970429 -0.031858694 1.5883127 10
-0.022733683 -0.031343743 1.5883416 10
-0.017481318 -0.031407334 1.5865011 10
-0.012654901 -0.032035165 1.5868374 10
-0.009546807 -0.031727541 1.5865244 10
0.0088719176 -0.032827839 1.5873749 10
0.012336463 -0.032222226 1.5879275 10
0.017485136 -0.03213767 1.5872424 10
0.022415794 -0.033315916 1.5873029 10
0.02713283 -0.033094198 1.5867549 10
0.032542583 -0.033207592 1.5865936 10
0.038176872 -0.03386924 1.5867215 10
0.040931664 -0.034242261 1.5858877 10
-0.087860852 -0.025393093 1.5889975 10
-0.082078941 -0.027071439 1.5878717 10
-0.042227183 -0.028168516 1.587429 10
-0.036675699 -0.028744269 1.5863831 10
-0.031787932 -0.029346051 1.5873212 10
-0.028491601 -0.029669968 1.588026 10
-0.023970947 -0.029175455 1.5850359 10
-0.017197831 -0.028197214 1.5856932 10
-0.013037817 -0.028741445 1.586457 10
-0.0086160768 -0.029105093 1.586702 10
0.012885645 -0.029674003 1.5854987 10
0.016598437 -0.029530872 1.5853348 10
0.023926688 -0.026628843 1.5864487 10
-0.091162965 -0.021472663 1.58736 10
-0.08897157 -0.022529921 1.588833 10
-0.082168803 -0.022297794 1.5875106 10
-0.095516093 -0.016575664 1.5857744 10
-0.093186408 -0.017920503 1.5861139 10
-0.082573436 -0.017193705 1.5872062 10
-0.077052452 -0.015711149 1.5863365 10
-0.072314642 -0.016458713 1.5876212 10
-0.0674823 -0.016820392 1.5890186 10
-0.062671453 -0.017089309 1.5890222 10
-0.058515336 -0.017079774 1.588264 10
-0.052768491 -0.015178959 1.5870707 10
-0.047294054 -0.017383097 1.5892338 10
-0.044029944 -0.016945248 1.5882562 10
-0.10572649 -0.011682996 1.5880302 10
-0.10308651 -0.012742473 1.58887 10
-0.081645563 -0.013093198 1.5854023 10
-0.077532783 -0.013071029 1.5864649 10
-0.072697468 -0.013948044 1.5876923 10
-0.066676997 -0.013255324 1.58622 10
-0.062560648 -0.012365796 1.5862356 10
-0.057677474 -0.012371211 1.5869787 10
-0.052770536 -0.012372104 1.5871363 10
-0.047501836 -0.012370178 1.5869509 10
-0.043399405 -0.012308496 1.5862634 10
-0.065329842 -0.0095547717 1.5853384 10
-0.062169336 -0.009089889 1.585799 10
-0.057642624 -0.0088572102 1.586025 10
-0.052804615 -0.0089302622 1.5859475 10
-0.047189604 -0.0090396581 1.5857824 10
-0.044042025 -0.0089975055 1.5861818 10
-0.12638222 -0.00056038721 1.5883871 10
-0.12196808 -0.0010660366 1.585883 10
-0.1186802 -0.0011443245 1.5857524 10
-0.13071845 0.0044724368 1.5869333 10
-0.12717015 0.0013723568 1.5887147 10
-0.12274488 0.00092260604 1.5868446 10
-0.11936361 0.00025931618 1.5855027 10
-0.10396145 0.0044698031 1.5861461 10
-0.13603058 0.0061009941 1.5889601 10
-0.13226844 0.0070959926 1.5877424 10
-0.12745892 0.0080114836 1.5861359 10
-0.12266108 0.0084557701 1.5860084 10
-0.11722378 0.0087540634 1.5860497 10
-0.1123931 0.0074244449 1.5855023 10
-0.107118 0.007576359 1.5859549 10
-0.10395228 0.0072538336 1.5878741 10
-0.12598784 0.012129029 1.5865113 10
-0.12275025 0.011089485 1.5876703 10
-0.11841048 0.0102935 1.587514 10
-0.11162142 0.012378276 1.5877039 10
-0.1069968 0.012616032 1.5860287 10
-0.10380696 0.012536943 1.5859243 10
-0.13592651 0.01991242 1.5861478 10
-0.13205224 0.019415094 1.5869838 10
-0.12713613 0.018958502 1.5877652 10
-0.12237456 0.018820247 1.588111 10
-0.11739334 0.018813791 1.5876465 10
-0.11246343 0.018600993 1.586165 10
-0.10721611 0.017356258 1.5875369 10
-0.10403493 0.017462883 1.587253 10
-0.14619105 0.024586918 1.5856329 10
-0.14220837 0.023657812 1.5871136 10
-0.13737808 0.022722494 1.5881854 10
-0.13243972 0.022184681 1.5886362 10
-0.12746678 0.022722159 1.5875804 10
-0.12266558 0.02291099 1.5875071 10
-0.11752691 0.02238811 1.5878599 10
-0.11245786 0.021675223 1.5871009 10
-0.10766079 0.022410203 1.585935 10
-0.1034368 0.023479529 1.5852485 10
-0.1502797 0.029732294 1.5854863 10
-0.14722045 0.027744964 1.5863948 10
-0.14316627 0.026469935 1.587613 10
-0.13722342 0.028067878 1.5858774 10
