# .PCD v0.7 - Point Cloud Data file format
VERSION 0.7
FIELDS x y z rgb
SIZE 4 4 4 4
TYPE F F F F
COUNT 1 1 1 1
WIDTH 1246
HEIGHT 1
VIEWPOINT 0 0 0 1 0 0 0
POINTS 1246
DATA ascii
0.327902 -0.120641 0.0158724 16711680
0.327745 -0.119976 0.0157079 16711680
0.32743 -0.119378 0.0153419 16711680
0.327228 -0.118732 0.0151197 16711680
0.326917 -0.118132 0.0147574 16711680
0.326482 -0.117583 0.0142375 16711680
0.326204 -0.116969 0.013917 16711680
0.32605 -0.116302 0.0137564 16711680
0.325848 -0.115655 0.0135343 16711680
0.325287 -0.115158 0.0128515 16711680
0.325062 -0.11452 0.0126005 16711680
0.324803 -0.113896 0.0123053 16711680
0.324429 -0.113319 0.0118631 16711680
0.324098 -0.112725 0.0114748 16711680
0.323735 -0.112143 0.0110468 16711680
0.323081 -0.11168 0.0102453 16711680
0.322825 -0.111053 0.00995362 16711680
0.32203 -0.110647 0.0089711 16711680
0.321691 -0.110053 0.00857353 16711680
0.321241 -0.109505 0.00803304 16711680
0.325906 -0.161491 0.0101185 16711680
0.326429 -0.160507 0.0108305 16711680
0.326962 -0.159519 0.0115551 16711680
0.327838 -0.158374 0.0127206 16711680
0.32845 -0.157352 0.0135463 16711680
0.329593 -0.156087 0.0150554 16711680
0.329702 -0.155299 0.0152338 16711680
0.330215 -0.154326 0.0159322 16711680
0.33039 -0.153509 0.0161955 16711680
0.330819 -0.152576 0.0167856 16711680
0.331248 -0.151644 0.0173764 16711680
0.331264 -0.150901 0.0174357 16711680
0.331324 -0.150138 0.0175514 16711680
0.331327 -0.149401 0.017593 16711680
0.33129 -0.148683 0.0175836 16711680
0.331195 -0.147991 0.0175004 16711680
0.331367 -0.147178 0.0177597 16711680
0.331353 -0.14645 0.0177799 16711680
0.33128 -0.145748 0.0177244 16711680
0.33134 -0.144987 0.0178392 16711680
0.331218 -0.144307 0.0177209 16711680
0.331197 -0.143583 0.0177317 16711680
0.331149 -0.14287 0.0177089 16711680
0.331108 -0.142155 0.0176936 16711680
0.331087 -0.14143 0.0177051 16711680
0.330939 -0.140763 0.0175524 16711680
0.330803 -0.14009 0.0174156 16711680
0.330818 -0.139349 0.0174732 16711680
0.330793 -0.138627 0.0174788 16711680
0.330656 -0.137955 0.0173405 16711680
0.330678 -0.137212 0.0174075 16711680
0.330565 -0.136529 0.0172994 16711680
0.330545 -0.135805 0.0173116 16711680
0.330292 -0.135183 0.0170252 16711680
0.329038 -0.135 0.0154507 16711680
0.328158 -0.134652 0.0143578 16711680
0.326936 -0.134452 0.012826 16711680
0.326827 -0.133764 0.0127236 16711680
0.328587 -0.132263 0.0150234 16711680
0.330102 -0.130872 0.0170077 16711680
0.330213 -0.130092 0.0171878 16711680
0.330251 -0.129344 0.0172744 16711680
0.330182 -0.128642 0.0172234 16711680
0.330058 -0.127965 0.0171006 16711680
0.329973 -0.12727 0.0170292 16711680
0.32984 -0.126596 0.0168958 16711680
0.329674 -0.125936 0.0167205 16711680
0.329596 -0.125238 0.0166583 16711680
0.329522 -0.124539 0.0166001 16711680
0.329352 -0.123881 0.01642 16711680
0.329026 -0.123289 0.0160384 16711680
0.329003 -0.122567 0.0160466 16711680
0.328798 -0.121924 0.0158195 16711680
0.328519 -0.121311 0.0154991 16711680
0.328215 -0.120709 0.0151459 16711680
0.328005 -0.120067 0.014914 16711680
0.327857 -0.119399 0.0147606 16711680
0.327582 -0.118783 0.0144453 16711680
0.326912 -0.118334 0.0136212 16711680
0.326643 -0.117716 0.013314 16711680
0.326403 -0.117085 0.0130432 16711680
0.326429 -0.116342 0.013114 16711680
0.325939 -0.115816 0.0125217 16711680
0.325779 -0.115151 0.0123539 16711680
0.325184 -0.114667 0.0116261 16711680
0.325185 -0.113935 0.0116644 16711680
0.324375 -0.113539 0.0106623 16711680
0.324207 -0.112877 0.0104831 16711680
0.323805 -0.112311 0.0100043 16711680
0.32333 -0.111774 0.00943255 16711680
0.322841 -0.111243 0.00884163 16711680
0.322278 -0.110742 0.00815558 16711680
0.322036 -0.110108 0.00788224 16711680
0.325745 -0.161789 0.00877178 16711680
0.326218 -0.160828 0.00941908 16711680
0.326475 -0.159967 0.00978971 16711680
0.32693 -0.159016 0.0104138 16711680
0.328244 -0.157668 0.0121454 16711680
0.328139 -0.156977 0.0120481 16711680
0.329023 -0.155831 0.0132253 16711680
0.329853 -0.154712 0.0143324 16711680
0.329647 -0.154068 0.0141062 16711680
0.330385 -0.152993 0.0150955 16711680
0.330965 -0.151991 0.0158808 16711680
0.331279 -0.151111 0.0163226 16711680
0.330986 -0.150509 0.0159839 16711680
0.331263 -0.149647 0.0163792 16711680
0.331336 -0.148878 0.0165112 16711680
0.331565 -0.148039 0.0168445 16711680
0.331666 -0.147258 0.017013 16711680
0.331703 -0.146507 0.017099 16711680
0.331702 -0.145772 0.0171367 16711680
0.331807 -0.144991 0.0173098 16711680
0.331732 -0.14429 0.0172518 16711680
0.331795 -0.143528 0.0173709 16711680
0.331762 -0.142809 0.0173669 16711680
0.331807 -0.142055 0.0174625 16711680
0.331775 -0.141335 0.0174606 16711680
0.33177 -0.140604 0.0174915 16711680
0.331799 -0.139858 0.0175667 16711680
0.331702 -0.139168 0.01748 16711680
0.331796 -0.138394 0.017639 16711680
0.331671 -0.137716 0.0175169 16711680
0.33172 -0.136962 0.0176175 16711680
0.331689 -0.136243 0.0176153 16711680
0.331606 -0.135547 0.0175476 16711680
0.331502 -0.13486 0.0174518 16711680
0.331282 -0.134225 0.0172057 16711680
0.33096 -0.133634 0.0168295 16711680
0.330644 -0.13304 0.0164614 16711680
0.330575 -0.132338 0.0164101 16711680
0.330689 -0.131555 0.0165954 16711680
0.33076 -0.130793 0.0167245 16711680
0.33076 -0.130061 0.0167613 16711680
0.330665 -0.12937 0.0166777 16711680
0.330596 -0.128669 0.016626 16711680
0.33046 -0.127996 0.0164899 16711680
0.330284 -0.127341 0.0163013 16711680
0.330147 -0.126668 0.0161623 16711680
0.330123 -0.125947 0.016169 16711680
0.329881 -0.12532 0.0158949 16711680
0.329842 -0.124606 0.015883 16711680
0.329619 -0.12397 0.0156341 16711680
0.329394 -0.123335 0.0153825 16711680
0.329253 -0.122664 0.0152383 16711680
0.329068 -0.122011 0.0150381 16711680
0.328553 -0.121499 0.0144131 16711680
0.328517 -0.120783 0.0144048 16711680
0.327983 -0.120277 0.0137562 16711680
0.32782 -0.119615 0.0135843 16711680
0.327654 -0.118954 0.0134077 16711680
0.327283 -0.118378 0.0129682 16711680
0.327014 -0.11776 0.0126595 16711680
0.326684 -0.117167 0.0122733 16711680
0.326492 -0.116516 0.0120631 16711680
0.326145 -0.115929 0.0116545 16711680
0.325687 -0.115388 0.0111042 16711680
0.325442 -0.114758 0.0108262 16711680
0.324988 -0.114215 0.0102804 16711680
0.324493 -0.113688 0.00968075 16711680
0.323893 -0.113204 0.00894761 16711680
0.323589 -0.112597 0.00859392 16711680
0.323346 -0.111965 0.00831878 16711680
0.323113 -0.111328 0.00805688 16711680
0.326259 -0.161031 0.00833166 16711680
0.326696 -0.160087 0.00893438 16711680
0.326855 -0.159272 0.00917864 16711680
0.327462 -0.158251 0.00999916 16711680
0.328067 -0.157231 0.0108179 16711680
0.32855 -0.156269 0.0114801 16711680
0.328842 -0.155396 0.0118947 16711680
0.329557 -0.154329 0.0128549 16711680
0.329776 -0.15349 0.0131762 16711680
0.330136 -0.152588 0.0136782 16711680
0.330628 -0.151626 0.014351 16711680
0.331247 -0.150607 0.0151877 16711680
0.331181 -0.149901 0.015141 16711680
0.331628 -0.148962 0.0157553 16711680
0.3316 -0.148239 0.0157576 16711680
0.331606 -0.147501 0.0158044 16711680
0.331576 -0.146779 0.0158043 16711680
0.331646 -0.146013 0.015933 16711680
0.332057 -0.145093 0.0165009 16711680
0.332006 -0.144381 0.0164739 16711680
0.332107 -0.143602 0.0166414 16711680
0.332088 -0.142876 0.016656 16711680
0.332171 -0.142105 0.0168008 16711680
0.332221 -0.141349 0.0169035 16711680
0.332219 -0.140616 0.0169399 16711680
0.332114 -0.13993 0.0168428 16711680
0.332076 -0.139214 0.0168315 16711680
0.33206 -0.138487 0.0168496 16711680
0.332042 -0.137763 0.0168643 16711680
0.331853 -0.137113 0.0166594 16711680
0.331845 -0.136384 0.0166872 16711680
0.331803 -0.13567 0.0166707 16711680
0.33178 -0.134948 0.0166793 16711680
0.33161 -0.13429 0.0164986 16711680
0.331364 -0.133665 0.0162202 16711680
0.331348 -0.13294 0.0162376 16711680
0.331307 -0.132225 0.0162232 16711680
0.331256 -0.131516 0.0161946 16711680
0.331173 -0.13082 0.0161258 16711680
0.331045 -0.130144 0.0159986 16711680
0.330954 -0.129451 0.0159199 16711680
0.330891 -0.128747 0.0158763 16711680
0.33068 -0.128107 0.0156431 16711680
0.3306 -0.12741 0.0155778 16711680
0.33046 -0.126738 0.0154356 16711680
0.330326 -0.126065 0.0153005 16711680
0.330309 -0.12534 0.015317 16711680
0.330045 -0.124722 0.0150142 16711680
0.329798 -0.124097 0.0147344 16711680
0.329566 -0.123464 0.0144734 16711680
0.329517 -0.122754 0.0144484 16711680
0.329292 -0.122118 0.0141965 16711680
0.328858 -0.121572 0.0136751 16711680
0.328801 -0.120864 0.0136395 16711680
0.328292 -0.120348 0.0130223 16711680
0.328244 -0.119637 0.0129976 16711680
0.327717 -0.119128 0.012358 16711680
0.327309 -0.118568 0.0118709 16711680
0.327223 -0.117872 0.011797 16711680
0.326739 -0.117343 0.0112126 16711680
0.326639 -0.116653 0.0111213 16711680
0.325893 -0.116233 0.0101988 16711680
0.325752 -0.11556 0.0100548 16711680
0.325409 -0.11497 0.00965083 16711680
0.324797 -0.114492 0.008901 16711680
0.324391 -0.113928 0.00841665 16711680
0.324132 -0.113303 0.00812089 16711680
0.323939 -0.11265 0.00790966 16711680
0.323722 -0.112006 0.00766873 16711680
0.326785 -0.16101 0.00786972 16711680
0.326756 -0.160281 0.00787127 16711680
0.327229 -0.159321 0.00852036 16711680
0.327296 -0.158549 0.0086453 16711680
0.327588 -0.157673 0.00906193 16711680
0.328348 -0.156583 0.0100813 16711680
0.328594 -0.15573 0.0104377 16711680
0.328968 -0.154819 0.0109583 16711680
0.329017 -0.154057 0.0110617 16711680
0.330103 -0.152822 0.0125003 16711680
0.330082 -0.152094 0.0125117 16711680
0.33009 -0.151352 0.0125616 16711680
0.330521 -0.150418 0.0131567 16711680
0.331131 -0.149404 0.0139817 16711680
0.331201 -0.148636 0.0141102 16711680
0.33155 -0.147742 0.0145991 16711680
0.331514 -0.147023 0.0145912 16711680
0.331605 -0.146246 0.0147471 16711680
0.331975 -0.145344 0.0152622 16711680
0.33201 -0.144594 0.0153463 16711680
0.332148 -0.143797 0.0155631 16711680
0.332142 -0.143065 0.0155933 16711680
0.332278 -0.14227 0.0158077 16711680
0.332183 -0.141579 0.0157237 16711680
0.332257 -0.140812 0.0158577 16711680
0.332314 -0.140053 0.0159693 16711680
0.332227 -0.139358 0.0158956 16711680
0.332125 -0.13867 0.0158025 16711680
0.332124 -0.137937 0.0158401 16711680
0.332181 -0.137179 0.0159508 16711680
0.331983 -0.136533 0.0157344 16711680
0.332119 -0.13574 0.0159478 16711680
0.331887 -0.13511 0.0156866 16711680
0.33186 -0.134389 0.0156898 16711680
0.331601 -0.13377 0.015395 16711680
0.331786 -0.132957 0.0156708 16711680
0.331547 -0.132329 0.0154009 16711680
0.331493 -0.13162 0.0153698 16711680
0.331321 -0.130963 0.0151861 16711680
0.331162 -0.1303 0.0150191 16711680
0.331075 -0.129605 0.0149456 16711680
0.33092 -0.12894 0.0147842 16711680
0.330836 -0.128245 0.0147136 16711680
0.330643 -0.127596 0.0145023 16711680
0.330543 -0.126907 0.0144122 16711680
0.33043 -0.126225 0.0143036 16711680
0.330373 -0.125517 0.014269 16711680
0.33017 -0.124873 0.014045 16711680
0.329992 -0.124217 0.0138532 16711680
0.329761 -0.123584 0.0135942 16711680
0.329675 -0.122889 0.013521 16711680
0.329285 -0.122324 0.0130563 16711680
0.32892 -0.121747 0.0126244 16711680
0.328886 -0.12103 0.0126173 16711680
0.328587 -0.120425 0.0122705 16711680
0.328206 -0.119854 0.0118182 16711680
0.327912 -0.119246 0.0114768 16711680
0.327473 -0.118699 0.0109491 16711680
0.327055 -0.118143 0.010448 16711680
0.327047 -0.117414 0.0104752 16711680
0.326656 -0.116846 0.0100099 16711680
0.32641 -0.116217 0.00973034 16711680
0.325631 -0.115809 0.00876617 16711680
0.325244 -0.115238 0.00830507 16711680
0.324981 -0.114614 0.00800431 16711680
0.324751 -0.113977 0.00774598 16711680
0.327667 -0.160823 0.00786662 16711680
0.327939 -0.157733 0.00837386 16711680
0.328183 -0.156879 0.0087291 16711680
0.328648 -0.155925 0.00936782 16711680
0.328749 -0.155139 0.00953722 16711680
0.329067 -0.154253 0.00998795 16711680
0.329327 -0.153395 0.0103625 16711680
0.329641 -0.152513 0.0108069 16711680
0.330159 -0.151539 0.0115138 16711680
0.330537 -0.150629 0.0120404 16711680
0.330594 -0.149866 0.0121531 16711680
0.330977 -0.148954 0.0126871 16711680
0.331226 -0.148105 0.0130467 16711680
0.331358 -0.147309 0.013256 16711680
0.331401 -0.146553 0.0133506 16711680
0.331735 -0.145667 0.0138204 16711680
0.331758 -0.144921 0.0138882 16711680
0.331782 -0.144176 0.0139574 16711680
0.332158 -0.143272 0.014482 16711680
0.332306 -0.142471 0.0147111 16711680
0.332143 -0.141809 0.0145398 16711680
0.33222 -0.141041 0.014677 16711680
0.332242 -0.140297 0.014745 16711680
0.332133 -0.139611 0.0146427 16711680
0.332211 -0.138843 0.014781 16711680
0.332355 -0.138046 0.0150055 16711680
0.332074 -0.137436 0.0146817 16711680
0.332037 -0.136719 0.0146724 16711680
0.331861 -0.136064 0.0144835 16711680
0.331953 -0.13529 0.0146406 16711680
0.331841 -0.134606 0.014535 16711680
0.33185 -0.133869 0.0145844 16711680
0.33148 -0.133299 0.0141457 16711680
0.331588 -0.132519 0.0143224 16711680
0.331556 -0.1318 0.01432 16711680
0.331467 -0.131106 0.0142436 16711680
0.3314 -0.130403 0.0141948 16711680
0.331247 -0.129737 0.0140358 16711680
0.331123 -0.129059 0.0139134 16711680
0.330948 -0.128402 0.0137266 16711680
0.330883 -0.127698 0.0136811 16711680
0.330637 -0.127072 0.0134015 16711680
0.330442 -0.126424 0.013188 16711680
0.330295 -0.125755 0.0130371 16711680
0.33029 -0.125025 0.0130682 16711680
0.329955 -0.124437 0.0126747 16711680
0.329971 -0.123698 0.0127323 16711680
0.329653 -0.123102 0.0123612 16711680
0.329595 -0.122395 0.0123236 16711680
0.329205 -0.121829 0.0118589 16711680
0.328656 -0.12133 0.0111892 16711680
0.328592 -0.120625 0.0111445 16711680
0.328233 -0.120044 0.0107197 16711680
0.328075 -0.119379 0.0105536 16711680
0.327716 -0.118798 0.0101292 16711680
0.32734 -0.118224 0.0096817 16711680
0.327069 -0.117605 0.00937021 16711680
0.326581 -0.117077 0.00878 16711680
0.326112 -0.116541 0.00821269 16711680
0.325932 -0.115883 0.00801885 16711680
0.325642 -0.115271 0.00768232 16711680
0.325525 -0.114587 0.00756991 16711680
0.328743 -0.156102 0.00835121 16711680
0.328912 -0.155284 0.00860906 16711680
0.329047 -0.154482 0.00882268 16711680
0.329331 -0.153613 0.00922906 16711680
0.3294 -0.152842 0.00935674 16711680
0.329718 -0.151958 0.00980628 16711680
0.330101 -0.151045 0.0103401 16711680
0.330455 -0.150146 0.0108365 16711680
0.330797 -0.149253 0.0113178 16711680
0.331289 -0.148293 0.0119927 16711680
0.331614 -0.147409 0.0124505 16711680
0.331509 -0.14672 0.012355 16711680
0.331809 -0.145849 0.0127814 16711680
0.331812 -0.145112 0.0128239 16711680
0.331819 -0.144373 0.0128719 16711680
0.332134 -0.143496 0.0133171 16711680
0.33206 -0.142794 0.0132601 16711680
0.332176 -0.142008 0.013449 16711680
0.331983 -0.141359 0.013238 16711680
0.332153 -0.140549 0.013496 16711680
0.332251 -0.139771 0.0136617 16711680
0.33209 -0.139108 0.0134922 16711680
0.332376 -0.138247 0.0139002 16711680
0.332278 -0.137557 0.0138121 16711680
0.331951 -0.136968 0.0134284 16711680
0.332203 -0.136123 0.0137923 16711680
0.332013 -0.135473 0.0135857 16711680
0.331879 -0.134799 0.0134503 16711680
0.331852 -0.134078 0.0134538 16711680
0.331824 -0.133357 0.0134561 16711680
0.331559 -0.132739 0.0131532 16711680
0.331362 -0.132093 0.0129365 16711680
0.331521 -0.13129 0.0131803 16711680
0.331267 -0.130668 0.0128915 16711680
0.331484 -0.129841 0.0132091 16711680
0.33151 -0.129097 0.0132809 16711680
0.331126 -0.128531 0.0128243 16711680
0.330947 -0.127876 0.0126311 16711680
0.330666 -0.127265 0.0123059 16711680
0.33033 -0.126677 0.0119109 16711680
0.330297 -0.125959 0.0119061 16711680
0.329958 -0.125372 0.0115068 16711680
0.329725 -0.124739 0.0112448 16711680
0.329588 -0.124065 0.0111058 16711680
0.329531 -0.123357 0.0110706 16711680
0.329393 -0.122683 0.010931 16711680
0.328966 -0.122133 0.0104179 16711680
0.328706 -0.121511 0.0101198 16711680
0.328476 -0.120876 0.00986099 16711680
0.328252 -0.120238 0.00961053 16711680
0.327856 -0.119672 0.00913739 16711680
0.327523 -0.11908 0.00874579 16711680
0.327267 -0.118455 0.00845408 16711680
0.327008 -0.117831 0.00815701 16711680
0.326709 -0.117224 0.00780904 16711680
0.326456 -0.116597 0.00752044 16711680
0.329344 -0.154566 0.00806582 16711680
0.329592 -0.153713 0.00842607 16711680
0.32976 -0.152897 0.00868237 16711680
0.330006 -0.152045 0.00903952 16711680
0.330137 -0.151247 0.00924826 16711680
0.33003 -0.150557 0.00914884 16711680
0.330242 -0.149722 0.00946236 16711680
0.330476 -0.148878 0.00980425 16711680
0.330743 -0.14802 0.0101886 16711680
0.331482 -0.146949 0.0111828 16711680
0.331474 -0.146215 0.0112123 16711680
0.331738 -0.14536 0.0115921 16711680
0.331724 -0.144631 0.0116124 16711680
0.332067 -0.143741 0.0120953 16711680
0.331999 -0.143036 0.0120459 16711680
0.332259 -0.142184 0.0124211 16711680
0.332161 -0.141492 0.012334 16711680
0.332159 -0.140759 0.012369 16711680
0.332183 -0.140013 0.0124393 16711680
0.332416 -0.139175 0.0127795 16711680
0.332362 -0.138465 0.0127484 16711680
0.332132 -0.137832 0.0124903 16711680
0.332179 -0.137078 0.0125889 16711680
0.332291 -0.136294 0.0127724 16711680
0.332188 -0.135606 0.0126776 16711680
0.331999 -0.134956 0.0124723 16711680
0.331761 -0.134326 0.0122038 16711680
0.331899 -0.133533 0.0124201 16711680
0.331917 -0.132792 0.0124812 16711680
0.331696 -0.132155 0.0122346 16711680
0.331612 -0.131458 0.0121647 16711680
0.331708 -0.130684 0.0123268 16711680
0.33157 -0.13001 0.0121877 16711680
0.331382 -0.129359 0.0119828 16711680
0.331012 -0.128787 0.0115432 16711680
0.331036 -0.128043 0.0116128 16711680
0.330798 -0.127413 0.0113436 16711680
0.330512 -0.126804 0.0110124 16711680
0.330411 -0.126115 0.0109202 16711680
0.330234 -0.125458 0.0107294 16711680
0.330066 -0.124797 0.0105515 16711680
0.329886 -0.124141 0.0103574 16711680
0.329495 -0.123576 0.00989008 16711680
0.329364 -0.122899 0.00975919 16711680
0.328953 -0.122341 0.0092665 16711680
0.32852 -0.121792 0.00874472 16711680
0.328405 -0.121108 0.00863433 16711680
0.328149 -0.120483 0.0083425 16711680
0.327949 -0.119835 0.00812197 16711680
0.327722 -0.119197 0.00786746 16711680
0.327579 -0.118525 0.00772023 16711680
0.327331 -0.117896 0.00743818 16711680
0.330079 -0.15297 0.0079546 16711680
0.330263 -0.152147 0.00823188 16711680
0.330589 -0.151259 0.00869393 16711680
0.330571 -0.150529 0.00870967 16711680
0.330429 -0.149855 0.00856519 16711680
0.330587 -0.149045 0.00880933 16711680
0.33064 -0.148283 0.00891745 16711680
0.330888 -0.147433 0.00927722 16711680
0.331134 -0.146584 0.00963533 16711680
0.331143 -0.145843 0.00968552 16711680
0.331626 -0.144889 0.0103498 16711680
0.331791 -0.144079 0.0106021 16711680
0.332088 -0.143209 0.0110258 16711680
0.332225 -0.142413 0.0112411 16711680
0.332216 -0.141681 0.0112687 16711680
0.332203 -0.140952 0.0112908 16711680
0.332171 -0.140231 0.0112879 16711680
0.332113 -0.139522 0.0112524 16711680
0.332043 -0.138818 0.0112009 16711680
0.332098 -0.138059 0.0113103 16711680
0.332408 -0.137187 0.0117507 16711680
0.331983 -0.136641 0.0112388 16711680
0.33195 -0.135921 0.011236 16711680
0.331905 -0.135207 0.0112165 16711680
0.33214 -0.13437 0.0115581 16711680
0.331903 -0.13374 0.0112903 16711680
0.331608 -0.133135 0.0109481 16711680
0.332147 -0.132166 0.0116833 16711680
0.331634 -0.131656 0.0110592 16711680
0.331836 -0.130835 0.0113581 16711680
0.331491 -0.130252 0.0109514 16711680
0.331234 -0.12963 0.0106564 16711680
0.331334 -0.128854 0.0108249 16711680
0.330936 -0.128293 0.0103487 16711680
0.330598 -0.127705 0.00995064 16711680
0.330723 -0.126919 0.0101497 16711680
0.330675 -0.126206 0.0101269 16711680
0.330149 -0.125699 0.00948477 16711680
0.329866 -0.125087 0.00915754 16711680
0.329903 -0.124338 0.00924337 16711680
0.329587 -0.12374 0.00887299 16711680
0.329224 -0.123162 0.00844276 16711680
0.328969 -0.122537 0.00815153 16711680
0.328806 -0.121873 0.00797868 16711680
0.328649 -0.121207 0.00781369 16711680
0.328472 -0.120548 0.00762379 16711680
0.328343 -0.11987 0.00749457 16711680
0.330888 -0.150602 0.00797987 16711680
0.330952 -0.149835 0.00810277 16711680
0.330959 -0.149093 0.00815105 16711680
0.331017 -0.148329 0.00826561 16711680
0.331149 -0.147532 0.0084753 16711680
0.331249 -0.146748 0.00864518 16711680
0.331345 -0.145968 0.00880849 16711680
0.331604 -0.145114 0.00918341 16711680
0.331588 -0.144385 0.00920141 16711680
0.331878 -0.143518 0.00961649 16711680
0.331879 -0.142781 0.00965631 16711680
0.331991 -0.141995 0.00984025 16711680
0.331705 -0.141387 0.00950956 16711680
0.332425 -0.14033 0.0104808 16711680
0.33221 -0.139691 0.0102409 16711680
0.332364 -0.138887 0.0104797 16711680
0.332293 -0.138184 0.0104275 16711680
0.332189 -0.137495 0.010331 16711680
0.331884 -0.136895 0.00997519 16711680
0.332047 -0.136089 0.0102245 16711680
0.331833 -0.135449 0.00998616 16711680
0.332003 -0.134639 0.0102453 16711680
0.33189 -0.133955 0.0101378 16711680
0.331937 -0.1332 0.0102382 16711680
0.332042 -0.13242 0.0104122 16711680
0.331555 -0.131899 0.0098207 16711680
0.331662 -0.131119 0.00999737 16711680
0.331495 -0.130457 0.00982082 16711680
0.331359 -0.129783 0.00968313 16711680
0.331124 -0.129151 0.00941753 16711680
0.331014 -0.128465 0.0093143 16711680
0.330761 -0.127841 0.00902474 16711680
0.33076 -0.127108 0.00906277 16711680
0.330407 -0.126527 0.0086441 16711680
0.330313 -0.125834 0.00856042 16711680
0.33002 -0.125226 0.00822091 16711680
0.329851 -0.124564 0.00804079 16711680
0.329713 -0.12389 0.0079006 16711680
0.329681 -0.123171 0.00789654 16711680
0.329419 -0.122549 0.00759602 16711680
0.329237 -0.121893 0.0073992 16711680
0.331541 -0.149784 0.0077256 16711680
0.331522 -0.149055 0.00773954 16711680
0.331663 -0.148253 0.00796306 16711680
0.331752 -0.147475 0.00811672 16711680
0.331702 -0.14676 0.00809216 16711680
0.331764 -0.145995 0.00821185 16711680
0.331672 -0.145299 0.00813115 16711680
0.331817 -0.144497 0.00835896 16711680
0.332053 -0.143654 0.00870419 16711680
0.331999 -0.142942 0.00867367 16711680
0.332108 -0.142157 0.00885367 16711680
0.332021 -0.141459 0.00878 16711680
0.331943 -0.140758 0.00871837 16711680
0.332046 -0.139976 0.00889099 16711680
0.331877 -0.139316 0.00871098 16711680
0.331928 -0.138557 0.00881696 16711680
0.33203 -0.137777 0.00898838 16711680
0.332016 -0.137048 0.00900936 16711680
0.332121 -0.136267 0.00918329 16711680
0.331854 -0.135649 0.00887752 16711680
0.331867 -0.134909 0.00893295 16711680
0.331778 -0.134213 0.00885642 16711680
0.331757 -0.133488 0.0088681 16711680
0.331547 -0.132845 0.00863469 16711680
0.331558 -0.132106 0.00868833 16711680
0.331544 -0.131378 0.00870907 16711680
0.331388 -0.130711 0.00854588 16711680
0.331316 -0.130009 0.00849104 16711680
0.331172 -0.129337 0.00834334 16711680
0.331135 -0.128619 0.00833368 16711680
0.330925 -0.127976 0.00810122 16711680
0.330838 -0.12728 0.00802684 16711680
0.330762 -0.126579 0.00796688 16711680
0.330629 -0.125903 0.0078336 16711680
0.330442 -0.12525 0.00762904 16711680
0.330306 -0.124574 0.00749159 16711680
0.33019 -0.12389 0.00738108 16711680
0.332225 -0.147477 0.00759065 16711680
0.332269 -0.14672 0.00768745 16711680
0.332189 -0.146019 0.0076226 16711680
0.332159 -0.145295 0.00762343 16711680
0.332102 -0.144584 0.00758839 16711680
0.332245 -0.143782 0.00781429 16711680
0.332374 -0.142988 0.00802052 16711680
0.332434 -0.142224 0.00813806 16711680
0.332384 -0.14151 0.00811279 16711680
0.33237 -0.140781 0.00813353 16711680
0.332363 -0.140048 0.00816369 16711680
0.33234 -0.139322 0.00817287 16711680
0.332321 -0.138595 0.00818753 16711680
0.332271 -0.137881 0.0081625 16711680
0.332209 -0.137173 0.00812078 16711680
0.33228 -0.136407 0.00825119 16711680
0.33218 -0.135716 0.00816107 16711680
0.332203 -0.134971 0.00823021 16711680
0.332108 -0.134278 0.00814617 16711680
0.332038 -0.133574 0.00809491 16711680
0.33191 -0.132895 0.00796747 16711680
0.331913 -0.132159 0.00801075 16711680
0.331833 -0.13146 0.00794542 16711680
0.331715 -0.130777 0.00783145 16711680
0.331669 -0.130063 0.00781107 16711680
0.33158 -0.129367 0.00773394 16711680
0.33149 -0.128672 0.0076561 16711680
0.331391 -0.127981 0.00756693 16711680
0.331275 -0.127298 0.00745511 16711680
0.33122 -0.126587 0.00742292 16711680
0.331087 -0.125911 0.00728953 16711680
0.332856 -0.145934 0.00734782 16711680
0.332746 -0.145246 0.00724518 16711680
0.332898 -0.144441 0.00748134 16711680
0.332878 -0.143713 0.00749457 16711680
0.332913 -0.14296 0.00757992 16711680
0.332835 -0.142259 0.00751829 16711680
0.332859 -0.141512 0.00758922 16711680
0.332801 -0.140802 0.00755239 16711680
0.332808 -0.140063 0.00760114 16711680
0.332766 -0.139345 0.00758612 16711680
0.332741 -0.13862 0.00759351 16711680
0.332703 -0.137902 0.00758362 16711680
0.332685 -0.137174 0.00759888 16711680
0.33268 -0.136441 0.00763249 16711680
0.332665 -0.135713 0.00765169 16711680
0.332552 -0.135027 0.00754428 16711680
0.332473 -0.134327 0.0074811 16711680
0.332426 -0.133613 0.00745952 16711680
0.332428 -0.132877 0.00750101 16711680
0.332312 -0.132194 0.00738883 16711680
0.332291 -0.131469 0.00740087 16711680
0.332208 -0.13077 0.00733292 16711680
0.332181 -0.130048 0.00733662 16711680
0.332128 -0.129337 0.0073061 16711680
0.33351 -0.143643 0.00717568 16711680
0.333466 -0.142191 0.00719714 16711680
0.333476 -0.14145 0.00725019 16711680
0.333364 -0.140028 0.00718367 16711680
0.333364 -0.139292 0.00722301 16711680
0.333249 -0.137136 0.00719261 16711680
0.333221 -0.136413 0.00719571 16711680
0.241872 -0.037205 0.0182447 16711680
0.241698 -0.0365195 0.0180653 16711680
0.242361 -0.0355763 0.0188706 16711680
0.24226 -0.034869 0.0187761 16711680
0.242193 -0.034151 0.0187224 16711680
0.241966 -0.0334815 0.0184819 16711680
0.241556 -0.032868 0.0180247 16711680
0.241079 -0.0322745 0.0174885 16711680
0.241105 -0.0315277 0.0175447 16711680
0.240941 -0.0308387 0.017377 16711680
0.240871 -0.0301214 0.0173192 16711680
0.240034 -0.0296348 0.0163605 16711680
0.239718 -0.0289906 0.0160147 16711680
0.239223 -0.0283999 0.0154577 16711680
0.243649 -0.0434575 0.0190012 16711680
0.243697 -0.042703 0.0190827 16711680
0.243482 -0.0420311 0.0188551 16711680
0.243414 -0.0413131 0.0188001 16711680
0.243283 -0.0406146 0.018672 16711680
0.243222 -0.0398942 0.018626 16711680
0.243051 -0.0392085 0.0184491 16711680
0.243063 -0.0384653 0.0184896 16711680
0.242918 -0.0377714 0.0183438 16711680
0.242877 -0.0370451 0.0183209 16711680
0.242943 -0.0362859 0.0184237 16711680
0.242851 -0.0355756 0.0183406 16711680
0.242917 -0.0348165 0.0184443 16711680
0.242696 -0.0341458 0.0182092 16711680
0.242582 -0.0334423 0.0181 16711680
0.242389 -0.0327626 0.0178987 16711680
0.242299 -0.0320517 0.0178176 16711680
0.242276 -0.0313205 0.0178154 16711680
0.242285 -0.0305794 0.0178522 16711680
0.242508 -0.0297741 0.0181391 16711680
0.242311 -0.0290957 0.0179322 16711680
0.242414 -0.0283269 0.0180793 16711680
0.242371 -0.0276025 0.0180526 16711680
0.242431 -0.0268471 0.0181484 16711680
0.24224 -0.0261669 0.0179487 16711680
0.242299 -0.0254121 0.018043 16711680
0.242137 -0.024723 0.0178778 16711680
0.242087 -0.0240009 0.0178435 16711680
0.241949 -0.0233045 0.0177071 16711680
0.244983 -0.0468876 0.0193369 16711680
0.244757 -0.0462197 0.0190969 16711680
0.244614 -0.0455253 0.0189545 16711680
0.24453 -0.0448125 0.0188802 16711680
0.244279 -0.0441521 0.018611 16711680
0.244256 -0.0434199 0.0186088 16711680
0.244068 -0.0427396 0.0184127 16711680
0.243816 -0.042079 0.0181425 16711680
0.243759 -0.0413576 0.0180998 16711680
0.24363 -0.0406584 0.0179738 16711680
0.24356 -0.0399407 0.0179173 16711680
0.243475 -0.0392279 0.0178429 16711680
0.24344 -0.0384996 0.0178268 16711680
0.243183 -0.0378402 0.017549 16711680
0.24327 -0.0370741 0.0176774 16711680
0.243258 -0.0363388 0.0176889 16711680
0.243152 -0.0356328 0.017589 16711680
0.243097 -0.0349109 0.0175493 16711680
0.242979 -0.0342083 0.0174363 16711680
0.242715 -0.0335505 0.01715 16711680
0.242225 -0.0329611 0.0165992 16711680
0.242373 -0.0321775 0.0167979 16711680
0.242431 -0.0314211 0.0168922 16711680
0.242537 -0.0306506 0.0170422 16711680
0.242806 -0.0298313 0.0173836 16711680
0.242906 -0.0290632 0.0175266 16711680
0.242921 -0.0283208 0.0175705 16711680
0.242936 -0.0275787 0.0176134 16711680
0.243002 -0.0268218 0.0177155 16711680
0.242989 -0.0260884 0.0177257 16711680
0.243009 -0.0253455 0.0177736 16711680
0.243054 -0.0245951 0.0178522 16711680
0.24304 -0.0238624 0.0178611 16711680
0.243022 -0.0231311 0.0178649 16711680
0.24292 -0.0224248 0.0177696 16711680
0.242971 -0.0216734 0.0178545 16711680
0.242723 -0.0210097 0.0175883 16711680
0.242583 -0.0203147 0.0174474 16711680
0.242395 -0.0196332 0.0172515 16711680
0.246369 -0.0488186 0.0197875 16711680
0.245642 -0.0483121 0.0189562 16711680
0.245411 -0.0476462 0.0187094 16711680
0.245271 -0.046951 0.0185701 16711680
0.245003 -0.0462964 0.0182801 16711680
0.24491 -0.0455862 0.0181957 16711680
0.244709 -0.0449101 0.0179844 16711680
0.244604 -0.0442036 0.017886 16711680
0.244453 -0.0435114 0.0177342 16711680
0.244264 -0.0428313 0.0175368 16711680
0.244104 -0.0421417 0.0173742 16711680
0.243964 -0.041446 0.0172344 16711680
0.243845 -0.0407436 0.0171195 16711680
0.243896 -0.039988 0.0172057 16711680
0.243742 -0.0392967 0.0170492 16711680
0.243515 -0.0386278 0.0168074 16711680
0.243529 -0.0378841 0.0168496 16711680
0.243598 -0.0371235 0.0169561 16711680
0.24363 -0.0363745 0.0170195 16711680
0.243479 -0.0356821 0.0168673 16711680
0.243365 -0.0349782 0.0167584 16711680
0.24341 -0.0342256 0.0168368 16711680
0.24326 -0.0335326 0.0166862 16711680
0.242382 -0.033062 0.0156763 16711680
0.241998 -0.0324397 0.0152491 16711680
0.242311 -0.0316056 0.0156426 16711680
0.242275 -0.0308775 0.0156265 16711680
0.242724 -0.030003 0.0161812 16711680
0.243012 -0.029178 0.0165457 16711680
0.243143 -0.0284004 0.016726 16711680
0.243234 -0.0276354 0.0168583 16711680
0.243215 -0.0269037 0.0168605 16711680
0.243308 -0.0261385 0.0169955 16711680
0.243456 -0.0253571 0.0171955 16711680
0.24359 -0.0245805 0.0173779 16711680
0.243515 -0.0238658 0.0173151 16711680
0.243523 -0.0231268 0.01735 16711680
0.243634 -0.0223576 0.0175056 16711680
0.243799 -0.0215726 0.0177255 16711680
0.243759 -0.0208483 0.0177033 16711680
0.243809 -0.0200976 0.0177878 16711680
0.243744 -0.0193811 0.0177352 16711680
0.243648 -0.0186733 0.0176475 16711680
0.243886 -0.0178683 0.0179536 16711680
0.243794 -0.0171599 0.0178695 16711680
0.247477 -0.0508369 0.0199107 16711680
0.246994 -0.0502535 0.0193659 16711680
0.246413 -0.0497009 0.0187062 16711680
0.246218 -0.0490234 0.018503 16711680
0.245983 -0.0483592 0.0182503 16711680
0.245754 -0.0476922 0.018007 16711680
0.245579 -0.0470082 0.0178261 16711680
0.245484 -0.0462984 0.0177401 16711680
0.245313 -0.045613 0.0175633 16711680
0.245172 -0.0449176 0.0174235 16711680
0.244883 -0.0442694 0.0171077 16711680
0.24485 -0.0435399 0.0170946 16711680
0.244649 -0.0428635 0.016883 16711680
0.244427 -0.0421934 0.0166472 16711680
0.244367 -0.0414723 0.0166024 16711680
0.244258 -0.0407667 0.0164993 16711680
0.244187 -0.0400493 0.0164411 16711680
0.244011 -0.0393645 0.0162597 16711680
0.243951 -0.0386436 0.0162144 16711680
0.243918 -0.0379145 0.0162007 16711680
0.243816 -0.0372068 0.0161055 16711680
0.244041 -0.0363979 0.0163972 16711680
0.243874 -0.0357105 0.0162255 16711680
0.243938 -0.0349517 0.0163273 16711680
0.243948 -0.0342101 0.0163639 16711680
0.243867 -0.033496 0.0162947 16711680
0.242829 -0.0330744 0.0150948 16711680
0.242511 -0.0324321 0.0147452 16711680
0.24237 -0.0317357 0.0146046 16711680
0.242502 -0.0309564 0.0147859 16711680
0.242903 -0.0300961 0.0152848 16711680
0.243183 -0.0292731 0.0156407 16711680
0.243416 -0.0284649 0.0159404 16711680
0.243344 -0.0277486 0.0158809 16711680
0.243582 -0.0269394 0.0161874 16711680
0.243606 -0.026195 0.0162402 16711680
0.243553 -0.0254733 0.0162034 16711680
0.243801 -0.0246621 0.0165219 16711680
0.243918 -0.0238905 0.0166848 16711680
0.243896 -0.0231604 0.0166838 16711680
0.244036 -0.0223823 0.0168746 16711680
0.244052 -0.0216412 0.016919 16711680
0.244212 -0.0208581 0.0171323 16711680
0.244608 -0.0200059 0.0176247 16711680
0.244603 -0.0192719 0.0176437 16711680
0.244588 -0.0185407 0.0176516 16711680
0.244499 -0.0178314 0.0175714 16711680
0.24455 -0.0170815 0.0176562 16711680
0.244525 -0.0163535 0.0176524 16711680
0.244455 -0.0156387 0.0175952 16711680
0.244219 -0.014972 0.0173414 16711680
0.24437 -0.0141938 0.017544 16711680
0.248453 -0.0528969 0.0198779 16711680
0.248076 -0.0522799 0.0194588 16711680
0.247689 -0.0516656 0.0190282 16711680
0.247188 -0.0510878 0.0184627 16711680
0.246998 -0.0504092 0.0182642 16711680
0.246754 -0.0497478 0.0180019 16711680
0.246444 -0.0491076 0.017661 16711680
0.246307 -0.0484114 0.0175251 16711680
0.246114 -0.0477329 0.0173241 16711680
0.245986 -0.0470339 0.0171977 16711680
0.245762 -0.046365 0.0169601 16711680
0.245658 -0.0456581 0.0168631 16711680
0.245353 -0.0450149 0.0165284 16711680
0.245306 -0.0442897 0.0164989 16711680
0.24514 -0.0436023 0.0163283 16711680
0.244955 -0.0429204 0.0161366 16711680
0.244888 -0.0422015 0.0160834 16711680
0.244751 -0.0415048 0.0159469 16711680
0.244663 -0.0407926 0.0158689 16711680
0.24453 -0.0400943 0.0157381 16711680
0.244392 -0.0393977 0.0156004 16711680
0.244321 -0.0386801 0.0155425 16711680
0.24421 -0.037975 0.0154372 16711680
0.244266 -0.0372182 0.0155288 16711680
0.244144 -0.0365166 0.0154104 16711680
0.244357 -0.0357116 0.0156883 16711680
0.244233 -0.0350109 0.0155668 16711680
0.244154 -0.034296 0.0155001 16711680
0.244195 -0.0335447 0.0155739 16711680
0.243812 -0.032923 0.0151469 16711680
0.242891 -0.0324649 0.0140846 16711680
0.242699 -0.0317839 0.0138836 16711680
0.242696 -0.0310453 0.0139064 16711680
0.243219 -0.0301479 0.0145495 16711680
0.243354 -0.0293687 0.0147338 16711680
0.243285 -0.028651 0.014678 16711680
0.243686 -0.027792 0.0151776 16711680
0.243816 -0.0270152 0.0153562 16711680
0.243885 -0.0262568 0.0154635 16711680
0.24386 -0.0255269 0.0154588 16711680
0.243984 -0.0247526 0.0156305 16711680
0.244102 -0.0239803 0.0157956 16711680
0.244137 -0.0232331 0.015862 16711680
0.244174 -0.0224852 0.0159316 16711680
0.244251 -0.021726 0.0160474 16711680
0.244498 -0.0209171 0.0163636 16711680
0.244734 -0.0201114 0.0166683 16711680
0.244882 -0.0193324 0.016868 16711680
0.244968 -0.0185716 0.0169951 16711680
0.245163 -0.0177794 0.0172503 16711680
0.245262 -0.0170157 0.0173916 16711680
0.245192 -0.0163009 0.0173352 16711680
0.245392 -0.0155083 0.0175959 16711680
0.24544 -0.01476 0.0176772 16711680
0.245293 -0.0140678 0.0175291 16711680
0.24521 -0.0133573 0.0174562 16711680
0.244441 -0.0128433 0.0165733 16711680
0.248959 -0.0543699 0.0193173 16711680
0.248742 -0.053701 0.0190868 16711680
0.248561 -0.0530203 0.0188984 16711680
0.2481 -0.0524303 0.0183797 16711680
0.247842 -0.0517741 0.0181005 16711680
0.247481 -0.0511508 0.0177001 16711680
0.247203 -0.0505006 0.0173969 16711680
0.247049 -0.0498098 0.0172417 16711680
0.246821 -0.049143 0.0169979 16711680
0.246667 -0.0484523 0.0168418 16711680
0.246483 -0.0477709 0.0166506 16711680
0.246416 -0.0470519 0.0165985 16711680
0.246148 -0.0463975 0.0163066 16711680
0.245995 -0.0457059 0.0161525 16711680
0.245772 -0.0450366 0.0159144 16711680
0.245659 -0.0443321 0.0158076 16711680
0.245515 -0.0436378 0.0156623 16711680
0.245431 -0.0429242 0.0155895 16711680
0.245349 -0.0422099 0.0155188 16711680
0.245192 -0.0415193 0.0153594 16711680
0.24513 -0.0407988 0.015312 16711680
0.245162 -0.0400492 0.0153754 16711680
0.245086 -0.0393333 0.0153115 16711680
0.245029 -0.0386114 0.0152704 16711680
0.245085 -0.0378548 0.0153615 16711680
0.245197 -0.0370808 0.0155203 16711680
0.245321 -0.0363035 0.0156925 16711680
0.24524 -0.0355897 0.0156227 16711680
0.245342 -0.0348195 0.0157694 16711680
0.245405 -0.0340618 0.0158689 16711680
0.245035 -0.0334368 0.0154573 16711680
0.244385 -0.0328969 0.0147147 16711680
0.243502 -0.0324271 0.0136976 16711680
0.243338 -0.0317378 0.0135293 16711680
0.24399 -0.0308007 0.0143257 16711680
0.244123 -0.0300219 0.0145084 16711680
0.244334 -0.0292197 0.0147836 16711680
0.24416 -0.0285343 0.0146028 16711680
0.24438 -0.0277298 0.0148892 16711680
0.244538 -0.0269447 0.0151014 16711680
0.244341 -0.0262662 0.0148937 16711680
0.244352 -0.0255252 0.0149326 16711680
0.244374 -0.0247812 0.0149844 16711680
0.244387 -0.0240403 0.0150244 16711680
0.244469 -0.0232788 0.0151471 16711680
0.244415 -0.0225578 0.0151089 16711680
0.244534 -0.0217861 0.0152743 16711680
0.244742 -0.0209881 0.0155463 16711680
0.244895 -0.020207 0.015752 16711680
0.245128 -0.0194026 0.0160527 16711680
0.245395 -0.0185889 0.0163934 16711680
0.245394 -0.0178537 0.0164177 16711680
0.245526 -0.0170799 0.0165993 16711680
0.245789 -0.0162687 0.0169349 16711680
0.246248 -0.0154011 0.0175024 16711680
0.246236 -0.0146704 0.0175128 16711680
0.24651 -0.0138572 0.0178623 16711680
0.246518 -0.013121 0.0178967 16711680
0.246106 -0.0125054 0.0174348 16711680
0.245889 -0.0118335 0.0172039 16711680
0.245873 -0.0111042 0.01721 16711680
0.244758 -0.0106875 0.015918 16711680
0.250575 -0.0562181 0.0200427 16711680
0.249986 -0.0556724 0.0193719 16711680
0.249626 -0.0550508 0.018972 16711680
0.249196 -0.0544518 0.0184891 16711680
0.248852 -0.0538241 0.0181086 16711680
0.248687 -0.0531379 0.0179391 16711680
0.248429 -0.0524817 0.0176599 16711680
0.248119 -0.0518419 0.0173204 16711680
0.247752 -0.0512207 0.0169119 16711680
0.247488 -0.0505657 0.0166256 16711680
0.247413 -0.0498495 0.0165634 16711680
0.247295 -0.0491472 0.0164497 16711680
0.247059 -0.0484827 0.0161967 16711680
0.246904 -0.0477922 0.0160393 16711680
0.24667 -0.0471267 0.0157887 16711680
0.246547 -0.0464254 0.0156701 16711680
0.246459 -0.0457134 0.0155915 16711680
0.246274 -0.0450321 0.0153981 16711680
0.246374 -0.0442602 0.0155427 16711680
0.246435 -0.0435008 0.0156419 16711680
0.246237 -0.0428236 0.0154334 16711680
0.24663 -0.0419602 0.0159243 16711680
0.247505 -0.0409459 0.0169863 16711680
0.247357 -0.0402538 0.0168366 16711680
0.247833 -0.0393664 0.0174261 16711680
0.247936 -0.038596 0.0175747 16711680
0.24802 -0.0378321 0.0176995 16711680
0.24812 -0.0370636 0.017843 16711680
0.248051 -0.0363475 0.0177873 16711680
0.247992 -0.0356283 0.0177439 16711680
0.247949 -0.0349044 0.0177183 16711680
0.248306 -0.0340573 0.0181669 16711680
0.248229 -0.0333441 0.0181019 16711680
0.247083 -0.0329584 0.016772 16711680
0.245906 -0.0325807 0.0154057 16711680
0.245003 -0.0321183 0.0143621 16711680
0.245039 -0.0313688 0.0144306 16711680
0.246355 -0.030231 0.016013 16711680
0.246583 -0.0294246 0.0163088 16711680
0.24657 -0.0286916 0.0163187 16711680
0.246749 -0.0279005 0.0165571 16711680
0.246376 -0.0272761 0.0161414 16711680
0.246098 -0.0266228 0.0158379 16711680
0.245727 -0.025997 0.0154246 16711680
0.245523 -0.0253212 0.0152085 16711680
0.245201 -0.0246799 0.014854 16711680
0.24529 -0.0239166 0.0149844 16711680
0.245283 -0.0231817 0.015002 16711680
0.245072 -0.0225076 0.0147773 16711680
0.245013 -0.0217881 0.014734 16711680
0.245042 -0.0210429 0.0147936 16711680
0.24511 -0.0202865 0.0148996 16711680
0.245478 -0.0194425 0.0153599 16711680
0.245592 -0.0186732 0.0155203 16711680
0.245763 -0.0178878 0.0157475 16711680
0.245824 -0.0171347 0.0158449 16711680
0.245964 -0.0163589 0.0160357 16711680
0.246248 -0.0155415 0.0163975 16711680
0.246694 -0.0146782 0.0169497 16711680
0.246879 -0.0138907 0.017194 16711680
0.247045 -0.013109 0.0174154 16711680
0.247107 -0.0123574 0.0175145 16711680
0.246973 -0.0116624 0.0173804 16711680
0.246977 -0.0109278 0.0174103 16711680
0.246798 -0.0102454 0.0172237 16711680
0.246654 -0.00955272 0.0170794 16711680
0.251989 -0.0573904 0.0205568 16711680
0.251039 -0.056965 0.0194584 16711680
0.250392 -0.0564389 0.0187178 16711680
0.250204 -0.0557608 0.0185215 16711680
0.249884 -0.055126 0.0181686 16711680
0.249403 -0.0545433 0.0176259 16711680
0.24918 -0.0538762 0.0173874 16711680
0.249176 -0.0531373 0.017409 16711680
0.248765 -0.0525307 0.0169495 16711680
0.248392 -0.0519116 0.016534 16711680
0.248326 -0.0511927 0.0164815 16711680
0.247947 -0.0505748 0.0160596 16711680
0.247795 -0.0498834 0.0159061 16711680
0.247644 -0.0491916 0.0157535 16711680
0.247467 -0.0485082 0.0155699 16711680
0.247473 -0.047766 0.0156029 16711680
0.247352 -0.0470642 0.0154868 16711680
0.247685 -0.0462179 0.0159069 16711680
0.248348 -0.0452671 0.0167181 16711680
0.249202 -0.0442566 0.0177559 16711680
0.24938 -0.0434614 0.017994 16711680
0.249322 -0.0427417 0.017951 16711680
0.249295 -0.0420121 0.0179455 16711680
0.249332 -0.0412626 0.0180148 16711680
0.249153 -0.0405812 0.0178286 16711680
0.249117 -0.0398543 0.0178132 16711680
0.249049 -0.0391383 0.0177577 16711680
0.248933 -0.0384369 0.0176462 16711680
0.248797 -0.0377415 0.017512 16711680
0.248789 -0.0370066 0.0175283 16711680
0.248758 -0.0362789 0.0175178 16711680
0.248577 -0.0355976 0.0173295 16711680
0.248709 -0.0348196 0.0175121 16711680
0.248669 -0.034095 0.0174903 16711680
0.248549 -0.033395 0.0173742 16711680
0.247973 -0.0328349 0.0167172 16711680
0.247317 -0.0322984 0.0159665 16711680
0.247251 -0.031581 0.0159148 16711680
0.247532 -0.0307583 0.0162728 16711680
0.247891 -0.0299122 0.016724 16711680
0.248155 -0.0290957 0.0170622 16711680
0.248633 -0.0282148 0.0176544 16711680
0.248529 -0.0275103 0.0175573 16711680
0.248512 -0.0267799 0.017562 16711680
0.248407 -0.0260759 0.0174633 16711680
0.248313 -0.0253685 0.0173777 16711680
0.248012 -0.024723 0.0170469 16711680
0.247584 -0.0241147 0.016567 16711680
0.247264 -0.0234742 0.0162133 16711680
0.246786 -0.0228802 0.0156733 16711680
0.246135 -0.0223367 0.0149286 16711680
0.245986 -0.0216445 0.0147772 16711680
0.245978 -0.0209105 0.0147936 16711680
0.245955 -0.0201811 0.0147923 16711680
0.245945 -0.0194481 0.0148052 16711680
0.245968 -0.0187056 0.0148575 16711680
0.246061 -0.0179427 0.0149932 16711680
0.24602 -0.017219 0.0149704 16711680
0.246261 -0.0164137 0.0152807 16711680
0.246471 -0.0156175 0.0155554 16711680
0.246779 -0.0147936 0.0159456 16711680
0.247004 -0.0139945 0.0162364 16711680
0.247507 -0.0131157 0.0168569 16711680
0.247757 -0.0123101 0.0171788 16711680
0.247728 -0.0115849 0.01717 16711680
0.248004 -0.0107729 0.0175216 16711680
0.247857 -0.0100817 0.0173731 16711680
0.247772 -0.00937295 0.0172976 16711680
0.247635 -0.00867891 0.0171605 16711680
0.247182 -0.00807422 0.0166491 16711680
0.25255 -0.0588441 0.0200611 16711680
0.251649 -0.0584039 0.0190196 16711680
0.251513 -0.057709 0.018885 16711680
0.251046 -0.0571237 0.0183579 16711680
0.250633 -0.05652 0.0178944 16711680
0.250416 -0.0558512 0.0176637 16711680
0.250143 -0.0552008 0.0173665 16711680
0.24996 -0.0545204 0.0171764 16711680
0.249602 -0.0538972 0.0167788 16711680
0.24931 -0.0532524 0.0164582 16711680
0.249041 -0.0525997 0.0161657 16711680
0.248909 -0.0519021 0.0160359 16711680
0.248656 -0.0512435 0.0157633 16711680
0.248355 -0.0506006 0.0154324 16711680
0.248466 -0.0498242 0.0155904 16711680
0.248274 -0.0491457 0.0153894 16711680
0.249077 -0.0481474 0.0163676 16711680
0.250354 -0.0469981 0.0179082 16711680
0.250393 -0.046247 0.0179811 16711680
0.250264 -0.0455499 0.0178541 16711680
0.25036 -0.0447809 0.0179946 16711680
0.249994 -0.0441591 0.0175873 16711680
0.250069 -0.0433972 0.0177022 16711680
0.249965 -0.0426921 0.0176051 16711680
0.249797 -0.0420072 0.017432 16711680
0.249712 -0.0412961 0.0173571 16711680
0.249544 -0.0406108 0.0171852 16711680
0.24956 -0.0398681 0.0172298 16711680
0.249405 -0.0391788 0.0170722 16711680
0.249256 -0.0384876 0.0169225 16711680
0.249227 -0.0377589 0.0169141 16711680
0.249132 -0.0370511 0.0168273 16711680
0.249035 -0.0363437 0.0167383 16711680
0.248992 -0.0356196 0.0167134 16711680
0.248953 -0.0348944 0.0166932 16711680
0.248867 -0.0341837 0.0166173 16711680
0.248343 -0.0336075 0.0160229 16711680
0.248176 -0.0329215 0.0158508 16711680
0.247711 -0.0323266 0.0153251 16711680
0.247738 -0.031581 0.0153828 16711680
0.247886 -0.0307984 0.0155847 16711680
0.248067 -0.0300063 0.0158253 16711680
0.248362 -0.0291802 0.0162003 16711680
0.248883 -0.0282862 0.0168433 16711680
0.248925 -0.0275375 0.0169194 16711680
0.248987 -0.0267829 0.0170193 16711680
0.248978 -0.02605 0.0170344 16711680
0.248881 -0.0253435 0.0169451 16711680
0.249138 -0.0245313 0.0172756 16711680
0.249122 -0.0238012 0.0172813 16711680
0.249067 -0.0230824 0.0172424 16711680
0.249129 -0.0223292 0.0173415 16711680
0.248654 -0.0217351 0.0168042 16711680
0.24826 -0.0211165 0.0163635 16711680
0.247816 -0.0205122 0.0158633 16711680
0.247196 -0.0199593 0.0151539 16711680
0.247015 -0.0192767 0.0149657 16711680
0.246843 -0.0185918 0.0147865 16711680
0.246632 -0.0179179 0.014562 16711680
0.246638 -0.0171806 0.0145948 16711680
0.24671 -0.0164243 0.0147055 16711680
0.246678 -0.0156984 0.0146933 16711680
0.246839 -0.0149166 0.0149103 16711680
0.247187 -0.0140815 0.0153477 16711680
0.247463 -0.0132676 0.0157006 16711680
0.247885 -0.0124127 0.0162249 16711680
0.248128 -0.0116094 0.016538 16711680
0.248341 -0.0108151 0.0168161 16711680
0.248638 -0.00999746 0.0171932 16711680
0.24887 -0.00919867 0.0174938 16711680
0.248604 -0.00854173 0.0172036 16711680
0.248292 -0.00789735 0.0168594 16711680
0.248459 -0.00711757 0.0170829 16711680
0.247687 -0.00660247 0.0161934 16711680
0.253721 -0.0600941 0.02029 16711680
0.252934 -0.0596176 0.0193825 16711680
0.252244 -0.0591078 0.0185897 16711680
0.251938 -0.0584694 0.0182537 16711680
0.251723 -0.0578006 0.0180254 16711680
0.251216 -0.0572284 0.0174499 16711680
0.251112 -0.0565224 0.0173533 16711680
0.250632 -0.0559405 0.0168097 16711680
0.250793 -0.0551471 0.0170279 16711680
0.250231 -0.0545914 0.0163871 16711680
0.250109 -0.0538907 0.0162699 16711680
0.249837 -0.0532391 0.0159739 16711680
0.249553 -0.0525912 0.0156637 16711680
0.249442 -0.0518871 0.0155578 16711680
0.2498 -0.0510305 0.0160093 16711680
0.250386 -0.0501006 0.0167321 16711680
0.250792 -0.0492301 0.01724 16711680
0.25148 -0.0482694 0.0180829 16711680
0.251415 -0.0475518 0.0180324 16711680
0.251246 -0.0468677 0.0178587 16711680
0.251224 -0.0461365 0.0178591 16711680
0.250886 -0.0455065 0.0174837 16711680
0.250726 -0.0448193 0.0173204 16711680
0.250526 -0.0441446 0.0171096 16711680
0.250149 -0.0435261 0.0166885 16711680
0.250282 -0.0427455 0.0168731 16711680
0.250136 -0.0420537 0.0167258 16711680
0.250232 -0.0412851 0.0168668 16711680
0.249711 -0.0407113 0.0162741 16711680
0.249683 -0.039982 0.0162673 16711680
0.249521 -0.0392947 0.0161014 16711680
0.249462 -0.0385752 0.016058 16711680
0.249351 -0.037872 0.015952 16711680
0.249323 -0.0371428 0.0159456 16711680
0.24922 -0.036437 0.0158499 16711680
0.249279 -0.0356814 0.0159452 16711680
0.249176 -0.0349757 0.0158495 16711680
0.249137 -0.0342503 0.0158294 16711680
0.248833 -0.0336065 0.0154949 16711680
0.248439 -0.0329901 0.0150533 16711680
0.248222 -0.032319 0.0148225 16711680
0.248162 -0.0315997 0.0147778 16711680
0.248306 -0.0308186 0.0149742 16711680
0.24831 -0.0300802 0.0150051 16711680
0.248459 -0.0292979 0.0152081 16711680
0.248649 -0.0285037 0.0154594 16711680
0.248721 -0.0277455 0.0155709 16711680
0.249021 -0.0269189 0.0159522 16711680
0.248896 -0.0262207 0.0158293 16711680
0.249184 -0.0253984 0.0161968 16711680
0.249359 -0.0246104 0.0164307 16711680
0.249433 -0.023853 0.0165443 16711680
0.250076 -0.0229267 0.0173322 16711680
0.250087 -0.0221888 0.0173717 16711680
0.250096 -0.0214516 0.0174084 16711680
0.249974 -0.0207537 0.0172886 16711680
0.249916 -0.0200365 0.0172458 16711680
0.249806 -0.0193347 0.0171411 16711680
0.249329 -0.0187407 0.0166008 16711680
0.248528 -0.0182407 0.0156773 16711680
0.248274 -0.0175802 0.0154016 16711680
0.247627 -0.0170341 0.0146594 16711680
0.247431 -0.0163558 0.0144537 16711680
0.247513 -0.0155972 0.0145758 16711680
0.247501 -0.0148657 0.0145874 16711680
0.247523 -0.0141247 0.0146389 16711680
0.247604 -0.0133668 0.0147607 16711680
0.247923 -0.0125407 0.015165 16711680
0.248263 -0.0117095 0.0155932 16711680
0.248556 -0.0108922 0.0159657 16711680
0.24897 -0.0100409 0.0164821 16711680
0.249432 -0.00917676 0.0170549 16711680
0.24945 -0.00843906 0.0171025 16711680
0.249455 -0.0077056 0.0171328 16711680
0.249385 -0.00699306 0.0170758 16711680
0.249216 -0.00630862 0.0169005 16711680
0.248988 -0.0056406 0.0166554 16711680
0.248698 -0.00498965 0.0163373 16711680
0.246832 -0.00477859 0.0141512 16711680
0.255491 -0.0611416 0.0212308 16711680
0.253968 -0.0609137 0.0194477 16711680
0.253362 -0.0603767 0.0187553 16711680
