# .PCD v0.7 - Point Cloud Data file format
VERSION 0.7
FIELDS x y z
SIZE 4 4 4
TYPE F F F
COUNT 1 1 1
WIDTH 1370
HEIGHT 1
VIEWPOINT 0 0 0 1 0 0 0
POINTS 1370
DATA ascii
0.36219668 -0.12559679 0.020217776
0.36256456 -0.12472183 0.020696998
0.36327159 -0.12370408 0.021619081
0.38324869 -0.07610473 0.047637105
0.38878763 -0.030676126 0.054785371
0.38934427 -0.029807597 0.055510879
0.38984054 -0.02895996 0.056157708
0.3893823 -0.028428227 0.055557728
0.38920683 -0.027802795 0.055327177
0.38842189 -0.027377456 0.054300427
0.38771701 -0.026924759 0.053378463
0.38752794 -0.026302427 0.05313015
0.38732356 -0.025684953 0.052861691
0.3870194 -0.025099754 0.052463055
0.38715601 -0.024371058 0.05264008
0.38704091 -0.023724228 0.052488208
0.38711679 -0.023015648 0.052585959
0.38699967 -0.022369474 0.052431464
0.38704556 -0.021670789 0.052489996
0.38695741 -0.021015316 0.052373409
0.38697135 -0.020327151 0.052390218
0.38693684 -0.019654602 0.052343607
0.38683528 -0.019003451 0.052209496
0.38687855 -0.018306196 0.052264571
0.3878153 0.0078552961 0.053430796
0.38778913 0.0092047155 0.053393483
0.38789886 0.010592729 0.053533792
0.38770676 0.011215925 0.053281307
0.38774467 0.011904836 0.053329349
0.38780904 0.012601078 0.053411722
0.38792473 0.013311684 0.05356133
0.38825327 0.014082164 0.053988814
0.38827276 0.014764965 0.054012775
0.38914782 0.015688121 0.055154204
0.38943946 0.027251095 0.055508256
0.36360723 -0.13170353 0.020923138
0.36356193 -0.13100356 0.020862818
0.36403376 -0.12864342 0.021476269
0.36340809 -0.1281926 0.020657301
0.36356914 -0.12668604 0.020865798
0.36337745 -0.12604901 0.020614028
0.36277425 -0.12558678 0.019824505
0.3627075 -0.12489611 0.019736171
0.36287266 -0.12410727 0.019950986
0.38490939 -0.074983567 0.048690081
0.38398123 -0.074640721 0.047475457
0.38333982 -0.074188083 0.046635985
0.38372189 -0.066402704 0.047121763
0.38835573 -0.030997545 0.053116322
0.38964206 -0.029886067 0.054796696
0.39055938 -0.028898805 0.055994511
0.39077264 -0.028145552 0.056271911
0.39055711 -0.027533948 0.055988908
0.39012384 -0.026993781 0.055421114
0.38979036 -0.026420265 0.054983854
0.38884842 -0.026045531 0.053751111
0.3882522 -0.025556594 0.05297029
0.38813448 -0.024911016 0.052815199
0.3880825 -0.02424401 0.052745819
0.38817573 -0.023529977 0.05286622
0.38792294 -0.022928059 0.052534461
0.38805634 -0.0222013 0.052707553
0.38788509 -0.021572918 0.052482367
0.38803393 -0.020841569 0.052675486
0.38787425 -0.020209432 0.05246532
0.38799465 -0.019487619 0.052621365
0.38771528 -0.01889357 0.052254796
0.3879649 -0.018130958 0.052579761
0.38772601 -0.017523855 0.052266121
0.38796467 -0.016765296 0.052576661
0.39001077 -0.010671169 0.055240512
0.38850957 0.001111567 0.053252459
0.38850701 0.0024696589 0.05324614
0.38842493 0.0038039684 0.053135991
0.38847172 0.0051757693 0.053194284
0.38827628 0.0057976246 0.052937269
0.38853741 0.0065525472 0.053277254
0.38832396 0.0071692169 0.052996755
0.3885687 0.0079187751 0.053315282
0.38842177 0.008554697 0.053121686
0.38850176 0.0092560947 0.053224802
0.38857847 0.0099563599 0.053323627
0.38858616 0.010636657 0.05333221
0.38877648 0.01136899 0.05357945
0.38864625 0.012009561 0.053407788
0.38906032 0.012804985 0.053947687
0.38976663 0.013682574 0.054869652
0.39100587 0.014709711 0.056488156
0.36421984 -0.13095859 0.020575047
0.36443323 -0.12870941 0.020851254
0.36358315 -0.12835479 0.019738078
0.36386055 -0.12607905 0.020097971
0.36331415 -0.12559274 0.019382
0.36295968 -0.1250242 0.018917322
0.36313701 -0.12422994 0.01914835
0.36400998 -0.1202704 0.020285368
0.38527918 -0.072964072 0.048054576
0.38429999 -0.07263872 0.046772242
0.38375551 -0.072148532 0.046058774
0.38362116 -0.071503699 0.045881867
0.38324189 -0.070255071 0.045383453
0.38411975 -0.067149162 0.046527505
0.38476944 -0.066214651 0.047376394
0.3898145 -0.03000626 0.053917766
0.39113069 -0.028886437 0.05563879
0.39139873 -0.028115034 0.055988312
0.39133441 -0.027453721 0.055902958
0.39140224 -0.026748985 0.055990338
0.39110768 -0.02616334 0.055603743
0.39089364 -0.025551021 0.055322409
0.39020771 -0.025092632 0.054423571
0.38937294 -0.024681836 0.053329945
0.38880986 -0.024181545 0.05259192
0.38898188 -0.02344203 0.052815795
0.38870692 -0.022847593 0.05245471
0.38894689 -0.022086561 0.052767396
0.3887741 -0.021458983 0.052540064
0.38890213 -0.020734549 0.052706361
0.38865083 -0.020132065 0.05237627
0.3887974 -0.019401997 0.052566767
0.3886326 -0.018771678 0.052349806
0.3887428 -0.018053651 0.052492738
0.38863409 -0.01740545 0.052349091
0.3887372 -0.016690075 0.052482724
0.3887409 -0.01600638 0.05248642
0.38876724 -0.013269097 0.052515626
0.38887137 -0.0037000477 0.052633405
0.38887042 -0.0030199587 0.052630782
0.38899297 -0.0023027956 0.052789927
0.38912272 -0.0015837848 0.05295825
0.38897616 -0.00094783306 0.052765131
0.3891868 -0.00020503998 0.053039432
0.38900834 0.00042137504 0.052804589
0.38928205 0.0011823475 0.053161383
0.38905895 0.0017955005 0.052868009
0.38926351 0.0025354028 0.053134561
0.38907439 0.0031587183 0.052885532
0.38914633 0.0038590133 0.052978277
0.38906151 0.0045131147 0.052865982
0.38922286 0.0052393079 0.05307579
0.38916898 0.0059022605 0.053003907
0.38925099 0.0066048205 0.053109884
0.38934368 0.0073102117 0.053229809
0.3893314 0.007984966 0.053212404
0.38940483 0.0086843967 0.053307056
0.38938266 0.0093560517 0.053276658
0.38983864 0.010165125 0.05387187
0.39003885 0.01090008 0.054132581
0.39071918 0.011771888 0.055021405
0.39183253 0.012766153 0.056476951
0.39219856 0.025686085 0.056929111
0.36479247 -0.13095042 0.020175695
0.36489034 -0.12875077 0.020301223
0.3640517 -0.12839136 0.019202113
0.36470866 -0.12667215 0.020060778
0.3645528 -0.12601998 0.019855618
0.36409265 -0.12549713 0.019252181
0.36357206 -0.12499943 0.018569469
0.3636204 -0.12425986 0.018631816
0.36436981 -0.12035164 0.019608736
0.38633865 -0.071379632 0.048323631
0.38579142 -0.07089141 0.047605872
0.38498127 -0.070501 0.046543837
0.38437229 -0.070034236 0.045745254
0.38374734 -0.069572628 0.044925809
0.38365453 -0.068911999 0.044803143
0.38487148 -0.067764491 0.046395898
0.38612342 -0.066605985 0.048034549
0.38558912 -0.06611076 0.047333598
0.39175075 -0.028175116 0.055345893
0.39173138 -0.027498841 0.055319428
0.3921532 -0.026677459 0.055870771
0.39231193 -0.02594322 0.056077361
0.39223886 -0.025285274 0.055980563
0.39187723 -0.024721622 0.055505753
0.39160335 -0.024128914 0.05514586
0.39056194 -0.023785621 0.053780675
0.38998866 -0.023288906 0.053028822
0.38979256 -0.022669345 0.052770615
0.38973504 -0.022004753 0.052694201
0.38968784 -0.021336943 0.05263114
0.38964856 -0.02066654 0.052578568
0.38967997 -0.019973546 0.052618504
0.38962853 -0.019307256 0.052549958
0.38963312 -0.018623084 0.052554846
0.38952172 -0.017975956 0.052407503
0.38969547 -0.0172382 0.052634001
0.38951635 -0.016612649 0.052398205
0.38954264 -0.013875633 0.052427769
0.38963646 -0.013164341 0.052549481
0.38966382 -0.0043022335 0.05256927
0.38965112 -0.0036258101 0.052551389
0.38974386 -0.0029176176 0.052671671
0.38971496 -0.0022463202 0.05263257
0.38989854 -0.0015112162 0.052871704
0.38967657 -0.00089806318 0.052579761
0.38997984 -0.00012764335 0.052975774
0.39001054 0.00056087971 0.053014517
0.39009351 0.0012648404 0.053121924
0.38985258 0.0018724501 0.052805185
0.39000928 0.0025979877 0.053009152
0.3900038 0.0032753646 0.053000689
0.3899833 0.0039481819 0.052972555
0.39006335 0.0046504438 0.053076148
0.39005059 0.0053253174 0.053058147
0.39018637 0.0060434639 0.053234696
0.39008665 0.0066927075 0.053102851
0.39067662 0.0075424612 0.053874254
0.39154786 0.0084727407 0.055014014
0.39215666 0.0093257427 0.055810213
0.39258462 0.024299055 0.056341887
0.37066829 0.12817042 0.027384996
0.36556238 -0.13085702 0.020035148
0.36527359 -0.12882394 0.019654155
0.36448997 -0.12844098 0.018626213
0.36513716 -0.12600687 0.019472122
0.36461312 -0.12551135 0.018784404
0.36438435 -0.1248897 0.018483758
0.36424738 -0.12422889 0.018303394
0.38705158 -0.069233596 0.048138976
0.3860839 -0.068901747 0.046869516
0.38575476 -0.068330556 0.046437144
0.38675922 -0.067263007 0.047752857
0.38680202 -0.06655401 0.047808051
0.39202887 -0.027576834 0.054605246
0.3923592 -0.026785314 0.055037141
0.39296168 -0.023859888 0.05582273
0.39280337 -0.023229957 0.055613995
0.39219987 -0.022744447 0.05482173
0.39111352 -0.022414595 0.053396583
0.39069331 -0.021867901 0.052844524
0.39081401 -0.021146208 0.053001761
0.39055204 -0.020547926 0.052657247
0.39066684 -0.019828439 0.052806616
0.39033365 -0.019252688 0.052368641
0.39051443 -0.018512368 0.052604556
0.39040452 -0.017865032 0.052459478
0.39055675 -0.017134339 0.052657843
0.39036804 -0.016512126 0.05240941
0.3905893 -0.015759975 0.052698255
0.39038086 -0.015143931 0.052423835
0.39050972 -0.014421463 0.052591681
0.39026421 -0.013816923 0.052268744
0.39045179 -0.013076395 0.05251348
0.3904919 -0.0042130649 0.05255127
0.39062786 -0.0034918189 0.052728295
0.39112997 -0.0026602447 0.053385377
0.39105171 -0.0020044744 0.053281665
0.39100182 -0.001340121 0.053215027
0.39178455 -0.00042617321 0.054239869
0.39267105 0.00051754713 0.055401087
0.39229947 0.0024403036 0.054910421
0.39221227 0.0030921996 0.054794788
0.39209569 0.0037354827 0.054640889
0.39230883 0.0044759512 0.054919004
0.39332634 0.023008645 0.056220174
0.3862769 0.060969442 0.046899796
0.37017053 0.12327853 0.025633454
0.37104309 0.12814388 0.026766062
0.36635089 -0.13075545 0.019919395
0.36792445 -0.12935761 0.021983147
0.36512959 -0.12912378 0.018314958
0.36494726 -0.12848243 0.018075109
0.36532193 -0.12544534 0.018563867
0.36515123 -0.12479913 0.018339157
0.38863218 -0.066766411 0.049093843
0.38760817 -0.06645456 0.0477494
0.38746703 -0.065814167 0.047563314
0.39247197 -0.026924044 0.054080486
0.3929444 -0.026086032 0.054699421
0.3934263 -0.025245726 0.055330753
0.39359796 -0.021782368 0.055551052
0.39288604 -0.021331549 0.054615736
0.39217806 -0.020878524 0.053685784
0.39145422 -0.020429611 0.05273509
0.39140314 -0.019763649 0.052667022
0.39107704 -0.019185841 0.052238107
0.39124155 -0.018450797 0.052452922
0.39105749 -0.017827332 0.052210331
0.39128381 -0.017073065 0.052506328
0.39121944 -0.016411543 0.052420855
0.39139152 -0.015675187 0.052645564
0.39127463 -0.015030473 0.052491188
0.39128369 -0.014346004 0.052502036
0.39121431 -0.013686299 0.052410007
0.39319581 -0.011703581 0.055007935
0.39168435 -0.0046927333 0.053013086
0.39484727 0.021933645 0.057121038
0.38523507 0.03558436 0.044478774
0.37102371 0.12805668 0.025629282
0.37146705 0.12879986 0.026209593
0.37221694 0.12958905 0.027192235
0.38052779 -0.086789638 0.037352324
0.38932723 -0.064632207 0.048888803
0.38861871 -0.064202279 0.04795754
0.38674241 -0.06281507 0.045491099
0.38607728 -0.062365562 0.044616699
0.39328563 -0.026149333 0.054042578
0.39266163 -0.019530922 0.053213716
0.39224923 -0.018981397 0.052671194
0.39208275 -0.018352717 0.052451611
0.39196968 -0.017706782 0.052302241
0.39209533 -0.01698485 0.052466273
0.39239383 -0.016208321 0.052857399
0.39210081 -0.015619755 0.052471519
0.3921622 -0.014918834 0.05255115
0.39208257 -0.014262587 0.05244565
0.39220649 -0.013542295 0.052607536
0.39328855 -0.012521625 0.054027677
0.39441586 0.019645035 0.05546093
0.38715929 0.05890511 0.045859337
0.37094831 0.12796074 0.024417639
0.37107819 0.12865639 0.024586797
0.37192845 0.12946159 0.025702119
0.38931483 -0.06137678 0.047753453
0.3885774 -0.060954988 0.046783328
0.3884936 -0.060293674 0.046672463
0.38782555 -0.05984509 0.045793533
0.38731301 -0.059339106 0.045119047
0.38701379 -0.05875507 0.04472506
0.38633901 -0.058306664 0.043837309
0.38566822 -0.039864928 0.042935252
0.3867718 -0.03879869 0.044385433
0.39384466 -0.017959803 0.053661466
0.39340758 -0.017418295 0.053086042
0.39301884 -0.016860873 0.052574158
0.39328188 -0.016095817 0.052919149
0.392928 -0.015526861 0.052453041
0.39318353 -0.014764726 0.052788019
0.39296144 -0.014153779 0.052495241
0.39322692 -0.0133892 0.052843332
0.39489919 -0.012183368 0.055040956
0.39511949 -0.011434972 0.05532968
0.39395046 -0.0056852102 0.053784966
0.39612448 0.018625557 0.056610346
0.38433391 0.037791625 0.041075468
0.38792574 0.057611629 0.045766592
0.38970208 0.058700532 0.048100948
0.37180084 0.12733205 0.024425983
0.37203753 0.1280441 0.024735928
0.37173742 0.12867343 0.024339795
0.38935524 -0.057409763 0.046686411
0.38901329 -0.056842208 0.0462358
0.38858604 -0.056304991 0.045673013
0.38803935 -0.055810183 0.044952989
0.38792068 -0.055160969 0.044796228
0.38773018 -0.054537445 0.044545054
0.38714784 -0.054053843 0.043778062
0.38733876 -0.053293616 0.044028759
0.38695765 -0.052737415 0.04352653
0.38699281 -0.052032918 0.043572187
0.38673127 -0.048666507 0.043224812
0.38680059 -0.047950715 0.043315291
0.38668585 -0.047299504 0.043163776
0.38681275 -0.046563894 0.043330073
0.38691503 -0.045837164 0.043463945
0.38704634 -0.0451006 0.043636084
0.3874138 -0.044282496 0.044118881
0.38745236 -0.043578863 0.044168949
0.38788521 -0.042739242 0.044737935
0.39544612 -0.016257435 0.054661632
0.39451361 -0.015873909 0.053434014
0.39442658 -0.015220881 0.05331862
0.39416867 -0.014621913 0.052978396
0.39407235 -0.013971657 0.052850962
0.39547896 -0.012848049 0.054700971
0.39611959 -0.011967301 0.055543303
0.39558983 -0.011454493 0.054845333
0.39402437 -0.0065054893 0.052779078
0.39719474 -0.004853934 0.056950092
0.39681602 0.016649216 0.056424737
0.3919695 0.052390859 0.049994349
0.37194204 0.12794501 0.02349627
0.3976379 -0.015728354 0.05644381
0.39728016 -0.015163392 0.05597198
0.39732367 -0.014470667 0.056028605
0.39657491 -0.014028937 0.055041671
0.39620203 -0.013467461 0.054549932
0.39685941 -0.012580931 0.055415034
0.39660752 -0.011981279 0.05508256
0.39555717 -0.010952175 0.053697944
0.3949849 -0.0084122121 0.052941322
0.39486939 -0.0077684522 0.052788377
0.394858 -0.0070924759 0.05277276
0.39137894 0.056826726 0.048109412
0.37190574 0.1285311 0.022331834
0.37000084 0.12891626 0.019821167
0.39850891 -0.014941633 0.056488276
0.39848918 -0.014269501 0.056461453
0.3983562 -0.012276798 0.056284428
0.39810687 -0.011677116 0.055955172
0.39729446 -0.011253834 0.054883599
0.39592671 -0.0089648068 0.053078055
0.39567631 -0.0083631575 0.052747369
0.39561248 -0.0077035129 0.052662492
0.39551133 -0.0070554316 0.052528501
0.3979826 -0.0056156814 0.055785894
0.39851063 -0.0040994883 0.056480765
0.39781445 0.011910707 0.055546999
0.39181697 0.05545938 0.047587156
0.37311399 0.12863244 0.022808313
0.39916635 -0.013545007 0.056251407
0.39911842 -0.010848284 0.05618608
0.39901114 -0.0095264912 0.056043506
0.39875591 -0.008928448 0.055706143
0.39831769 -0.0083870888 0.055127263
0.39855784 0.0079226494 0.05543077
0.3926729 0.054191411 0.047615647
0.39430147 0.055252597 0.049763918
0.37120575 0.12825504 0.019173622
0.4004817 -0.0051732957 0.056879759
0.40049493 -0.0044929981 0.056896687
0.39955294 -0.0013995469 0.055650234
0.39905977 0.0011566877 0.054997087
0.39901161 0.0018184483 0.054932833
0.39778507 0.0048350692 0.053310513
0.39484829 0.053913593 0.04938674
0.4124139 0.16807081 0.072431564
0.40097213 -0.0038333535 0.056425095
0.4010036 -0.0031476617 0.056466222
0.40102428 -0.0024654567 0.056493282
0.39146328 0.036085814 0.043824673
0.39197946 0.036895886 0.04450655
0.39446402 0.051676691 0.047778845
0.39557076 0.052616775 0.049241424
0.41296887 0.1680738 0.072097898
0.39338219 0.037795797 0.045253873
0.39202696 0.038122594 0.043460011
0.39263344 0.043007284 0.044259071
0.39573914 0.049841404 0.048364162
0.39619404 0.051295981 0.048964977
0.41371608 0.16874214 0.07201767
0.39220577 0.039383829 0.042586446
0.39358318 0.040411562 0.044410586
0.39812773 0.046138406 0.049324393
0.39305747 0.076504469 0.04258275
0.41518581 0.16878963 0.071828723
0.3993156 0.038914487 0.049799681
0.39952332 0.042998493 0.050073862
0.39897901 0.045546785 0.049350381
0.39901811 0.046227962 0.049402237
0.39903277 0.046902835 0.04942143
0.39364201 0.076515019 0.042252183
0.41569215 0.16878702 0.071431637
0.41610253 0.16947678 0.07197535
0.37302554 -0.031470448 0.013775826
0.40004754 0.042996526 0.049666405
0.39407492 0.076492965 0.04172051
0.40434134 0.099875256 0.055344582
0.40390688 0.10045266 0.054767132
0.40395415 0.10178232 0.054829121
0.4168117 0.16885522 0.071849227
0.41698772 0.16951767 0.072082162
0.38895285 -0.12498942 0.033735514
0.37346637 -0.032208532 0.013215184
0.37349546 -0.031496555 0.013254166
0.40119147 0.039796025 0.05008316
0.40075284 0.042369246 0.04949975
0.40098333 0.043770254 0.049805999
0.40403521 0.096409991 0.053846955
0.40387744 0.097040564 0.053636909
0.40380025 0.097686887 0.053533912
0.40369904 0.09832859 0.053399086
0.40520132 0.099938512 0.055395603
0.40458328 0.10048059 0.054573655
0.40414751 0.1010581 0.053993821
0.40445572 0.10177694 0.054403305
0.38118875 -0.15730008 0.02222538
0.38105166 -0.15664455 0.022043824
0.38121009 -0.15585092 0.022255778
0.38113523 -0.15516648 0.022156954
0.38126814 -0.15438536 0.022334814
0.38992339 -0.12338862 0.033887267
0.39005929 -0.1226224 0.034068942
0.38982725 -0.12201613 0.033760905
0.38723999 -0.054258376 0.030381083
0.38721222 -0.053571463 0.030344605
0.38708872 -0.052918822 0.030180693
0.38705385 -0.052234501 0.030134797
0.38702422 -0.051548421 0.030095935
0.38707721 -0.050833195 0.030166864
0.37406355 -0.032192916 0.012862563
0.37414622 -0.031463385 0.012972951
0.40261501 0.033984944 0.050872445
0.40480506 0.095134407 0.053777695
0.40467799 0.096432 0.053607941
0.40460944 0.097079813 0.053516507
0.40522128 0.097859472 0.054330468
0.40598756 0.099327877 0.055349588
0.406394 0.10006554 0.055890203
0.4058755 0.10062604 0.055199981
0.40591514 0.1012933 0.055252314
0.40573442 0.10191867 0.055011749
0.40564072 0.10256064 0.05488658
0.40390682 0.11543491 0.052572966
0.38155437 -0.15738702 0.021555662
0.38141495 -0.15673241 0.021371007
0.38165116 -0.1559023 0.021686792
0.38170111 -0.1551595 0.021754265
0.38185042 -0.1543707 0.021954298
0.3821193 -0.15352675 0.022313476
0.38209921 -0.15281734 0.022287726
0.38217646 -0.15206298 0.022391796
0.3821938 -0.15133658 0.022415996
0.38224214 -0.15059611 0.022481322
0.38232076 -0.14984179 0.022587299
0.3786422 -0.039269477 0.017807722
0.37851161 -0.038612753 0.017634273
0.40334171 0.032021627 0.050734997
0.40606135 0.091311306 0.054357052
0.40568674 0.093220204 0.053857565
0.40557694 0.093859643 0.053711176
0.40542299 0.094490498 0.053505898
0.40542454 0.09515208 0.053507924
0.40718275 0.1001153 0.05584836
0.4070273 0.10074487 0.055641055
0.4068442 0.10136929 0.055397034
0.40668631 0.10199866 0.05518651
0.40665591 0.10265227 0.055145741
0.40643525 0.10327008 0.05485177
0.40639383 0.10392162 0.054796338
0.40599912 0.1045073 0.054270387
0.40424478 0.10682282 0.051932931
0.40441048 0.10751349 0.05215323
0.40398282 0.10809588 0.051583409
0.4041028 0.10877806 0.051743031
0.40406287 0.11471023 0.051687598
0.40423042 0.11539882 0.0519104
0.40424228 0.11606017 0.051926017
0.40425891 0.11672223 0.051947832
0.40414488 0.11736169 0.051795721
0.40408361 0.11801031 0.051713705
0.40373552 0.11926933 0.051249623
0.38188702 -0.15748951 0.020841479
0.38180363 -0.15680853 0.020731449
0.38193679 -0.15602633 0.020910144
0.38186044 -0.15534225 0.02080965
0.3821522 -0.15448675 0.021199822
0.38235515 -0.15367308 0.02147162
0.38232613 -0.15296766 0.021433949
0.3825264 -0.15215597 0.02170229
0.38236082 -0.15151402 0.021482706
0.38257509 -0.15069655 0.021769404
0.38261884 -0.14995807 0.02182889
0.37913984 -0.039286315 0.017326474
0.37908942 -0.038602561 0.017259836
0.37902355 -0.037923992 0.017172575
0.37892836 -0.037255287 0.017046332
0.4034701 0.025860161 0.04979825
0.40360826 0.026571006 0.049982786
0.40378654 0.02729246 0.050220609
0.40367508 0.027934775 0.050072312
0.40383703 0.028651282 0.050288439
0.40390253 0.02934137 0.050376058
0.40395051 0.03002651 0.050440311
0.4039619 0.030701652 0.05045557
0.40387708 0.031350866 0.050342798
0.40380716 0.032004088 0.050249934
0.40340954 0.035929248 0.049721122
0.40337139 0.037933692 0.049670815
0.40583378 0.03991437 0.052954078
0.40722293 0.088794649 0.054810762
0.407116 0.089433998 0.054668069
0.40690416 0.090052158 0.054385662
0.40679896 0.090692073 0.054245353
0.40663564 0.091320366 0.054027557
0.40657794 0.091969997 0.053950548
0.40636367 0.09258832 0.053664684
0.40633595 0.093244016 0.053627729
0.40598273 0.11034113 0.053153634
0.40603912 0.11101031 0.053228617
0.40570927 0.1116104 0.052788615
0.40534335 0.11220449 0.052300692
0.40532619 0.11286072 0.052277565
0.40473044 0.11341497 0.051483154
0.40451801 0.11403728 0.051199794
0.40459031 0.11536905 0.051295757
0.40460348 0.11603069 0.051313043
0.40474814 0.11671495 0.051505804
0.40468282 0.11736283 0.051418424
0.40466565 0.11801898 0.051395535
0.40455991 0.11865996 0.051254272
0.40446287 0.1193025 0.051124692
0.4043414 0.11994097 0.050962567
0.40407455 0.12055507 0.050606489
0.40399885 0.12120152 0.05050528
0.38230699 -0.15755114 0.020243287
0.3822754 -0.15684584 0.020202518
0.38215721 -0.15618107 0.020045877
0.38217026 -0.15545496 0.020064592
0.38254577 -0.15456012 0.020567179
0.38248873 -0.15386727 0.020492196
0.38267839 -0.15305981 0.020746708
0.38277102 -0.15229788 0.020871639
0.38271105 -0.15160683 0.020792723
0.38284153 -0.1508278 0.020968318
0.38262212 -0.15021056 0.020676613
0.38333851 -0.14916214 0.021633983
0.40781856 -0.10727844 0.05435586
0.37953496 -0.039337903 0.016708255
0.37951893 -0.038642377 0.016687632
0.37948155 -0.037954152 0.016638398
0.37948704 -0.037251562 0.016646266
0.37945783 -0.036560744 0.016608
0.40300733 0.018843472 0.048069596
0.40359288 0.021031529 0.048851967
0.40362322 0.021714121 0.048892975
0.4038254 0.022444308 0.049163103
0.40387344 0.023131356 0.049227715
0.40399784 0.023839369 0.049394011
0.40407664 0.024534479 0.049499393
0.40408164 0.025209069 0.049506426
0.40428913 0.025939092 0.049783707
0.40430915 0.026617438 0.049810767
0.40436059 0.027304202 0.049879789
0.40422243 0.027939156 0.04969573
0.40432984 0.028640911 0.049839497
0.40426439 0.029295594 0.049752474
0.40436888 0.029996142 0.049892068
0.40437633 0.031342342 0.049902678
0.40431678 0.031998381 0.049823642
0.40429229 0.032663733 0.049791217
0.40409535 0.035298407 0.049529672
0.40821695 0.08756797 0.05504179
0.40798378 0.088181078 0.054730773
0.40786135 0.08881709 0.054567456
0.4077127 0.089447826 0.054369092
0.40751994 0.090069771 0.054111958
0.40743023 0.090712726 0.053992152
0.4072293 0.091333345 0.053724051
0.40655959 0.11232635 0.052828789
0.40638912 0.11295494 0.052601218
0.40627939 0.11359441 0.052454829
0.40609193 0.11422029 0.05220449
0.40557957 0.11478961 0.051520824
0.40557081 0.11544722 0.051508904
0.40528232 0.11605626 0.051123738
0.40519583 0.11670056 0.051008344
0.40512323 0.11734723 0.050911188
0.40509433 0.1180014 0.050872564
0.40506417 0.11865532 0.050832272
0.40500474 0.11930424 0.050752759
0.40496856 0.1199571 0.05070436
0.4048205 0.1205911 0.050506592
0.40478116 0.12124343 0.050454021
0.40453219 0.1218608 0.050121665
0.4043296 0.12248614 0.049851179
0.38294828 -0.157509 0.019940495
0.38284987 -0.15683499 0.019810438
0.38275295 -0.15616032 0.019682407
0.3827582 -0.15543792 0.019690633
0.38303775 -0.15458778 0.020065546
0.38294595 -0.15391099 0.01994431
0.3831569 -0.15309358 0.020227432
0.38323206 -0.15233961 0.020329356
0.38320249 -0.1516344 0.02029109
0.38316154 -0.15093455 0.020237684
0.38305622 -0.15026447 0.020098448
0.38435012 -0.14823216 0.021829724
0.38385612 -0.14774165 0.021171093
0.40470433 -0.11649412 0.049061179
0.40898335 -0.10700959 0.054790378
0.40926152 -0.10619894 0.055163026
0.40894938 -0.10563949 0.054747105
0.38017809 -0.039305568 0.01642108
0.37994641 -0.038682967 0.016112328
0.37980497 -0.038029701 0.015924215
0.37999207 -0.037265867 0.016174912
0.38006908 -0.036539376 0.016278505
0.40261811 0.013175339 0.046435595
0.40271336 0.013879091 0.046563506
0.40291613 0.014613479 0.046834707
0.4035098 0.016809911 0.047628999
0.40372425 0.017545909 0.047916055
0.40427923 0.021074831 0.048659444
0.40433711 0.021764979 0.048737288
0.40441841 0.022461489 0.048846483
0.40450907 0.023160294 0.048967957
0.40447348 0.023823947 0.048920751
0.40465271 0.025893092 0.049161553
0.40461481 0.026555702 0.049111366
0.40477967 0.02727361 0.049331903
0.40466785 0.02791582 0.04918313
0.40477413 0.028617322 0.049325347
0.40475422 0.029284418 0.04929924
0.40485603 0.02998431 0.049435735
0.40489787 0.031339824 0.049492359
0.40713912 0.035292029 0.05248785
0.40880531 0.087580264 0.054732323
0.40856826 0.088192508 0.054415822
0.40852839 0.088845387 0.054362655
0.40829766 0.089459285 0.054054499
0.40818048 0.090096489 0.053898215
0.40815139 0.091412604 0.053859591
0.4069888 0.11362597 0.052307487
0.40680861 0.11425298 0.052066803
0.40667242 0.11488786 0.05188489
0.40652627 0.11552115 0.051689625
0.40611416 0.11610842 0.051139235
0.40592492 0.11673471 0.050886393
0.40570027 0.11735511 0.050586343
0.40562409 0.11800113 0.050484538
0.40554166 0.11864613 0.050374389
0.40551281 0.11930028 0.050335765
0.40553689 0.1199633 0.050367832
0.40542048 0.12060259 0.050212264
0.40539533 0.12125722 0.050178647
0.40519905 0.1218833 0.049916506
0.40515906 0.1225355 0.049862862
0.40484077 0.12314168 0.049437642
0.38350022 -0.15606871 0.019521356
0.38341016 -0.15539092 0.019402504
0.38371414 -0.15452936 0.019810438
0.38356578 -0.15387908 0.019613504
0.38378179 -0.15305924 0.019903779
0.38378078 -0.15234068 0.019904017
0.38374555 -0.15163803 0.01985836
0.38372207 -0.15093008 0.019828439
0.38360089 -0.15026736 0.019667745
0.38484174 -0.14897659 0.021328568
0.38503855 -0.1481685 0.021593213
0.38443726 -0.14772752 0.020790696
0.38455749 -0.1469548 0.020952821
0.40441364 -0.12034476 0.047538042
0.40455556 -0.11888602 0.047730446
0.4048056 -0.1180788 0.04806602
0.40490568 -0.1173375 0.048201203
0.40505314 -0.11657584 0.048399687
0.40527701 -0.11578137 0.048700452
0.40528405 -0.11508137 0.048711181
0.40987527 -0.10685685 0.054861426
0.40990263 -0.10615313 0.054899216
0.40983677 -0.10548922 0.054812431
0.40969461 -0.10485765 0.054623723
0.39616984 -0.092372388 0.036571026
0.38065171 -0.040031642 0.015906692
0.38019788 -0.039484382 0.015300632
0.38023585 -0.038770229 0.015352249
0.38018954 -0.038084716 0.015291333
0.38037741 -0.037320465 0.015543222
0.38050795 -0.036575824 0.015718699
0.40291375 0.01175347 0.045716882
0.4031446 0.012497008 0.04602623
0.4031601 0.013177991 0.046047449
0.40324247 0.013878107 0.046158195
0.403624 0.014663786 0.046668887
0.40386683 0.016084641 0.046994567
0.40389949 0.01676935 0.047038794
0.40410626 0.017503351 0.047315836
0.40420151 0.018205374 0.047443748
0.40437019 0.020277038 0.04767096
0.4047116 0.021047071 0.04812789
0.40473068 0.021726459 0.048153996
0.40485018 0.022433713 0.048314333
0.40491331 0.023124978 0.04839921
0.40499055 0.024493426 0.048503518
0.40511364 0.026546821 0.048669696
0.40526634 0.027261451 0.048874378
0.40525281 0.027930468 0.048856616
0.40538269 0.028638378 0.0490309
0.4054594 0.02933161 0.049133897
0.40768331 0.031945601 0.052108526
0.40802246 0.032706767 0.052562475
0.40804243 0.033381984 0.052589655
0.40810978 0.034069732 0.052680135
0.40798354 0.034705803 0.052511811
0.40942073 0.087598234 0.054459095
0.40919209 0.088212103 0.054153562
0.40914339 0.088863045 0.054088593
0.40892321 0.089479014 0.053794503
0.40902299 0.09016028 0.053928137
0.4073711 0.11425865 0.051723719
0.40736252 0.11491582 0.051712155
0.40721375 0.11554849 0.051513314
0.40706754 0.1161817 0.05131793
0.40688401 0.11680865 0.051072717
0.40643483 0.11739007 0.050472021
0.40630859 0.11802739 0.05030334
0.40615124 0.11865947 0.050092936
0.4059726 0.11928813 0.049854279
0.40601581 0.11995444 0.049912095
0.40590358 0.12059441 0.049762011
0.40596968 0.1212644 0.049850345
0.40587366 0.12190711 0.049721956
0.40582108 0.12255713 0.049651742
0.40563118 0.12318441 0.049397945
0.40539432 0.12380415 0.049081206
0.38448107 -0.15299025 0.019680023
0.38453645 -0.15224561 0.019755721
0.38435626 -0.15161031 0.01951611
0.38597518 -0.14870754 0.021687746
0.38604373 -0.1479589 0.021780968
0.40423173 -0.12555721 0.04615438
0.40417778 -0.12488124 0.04608357
0.40448385 -0.12264708 0.046497583
0.40477651 -0.12181887 0.046890855
0.40479422 -0.12111226 0.04691577
0.4049629 -0.12033954 0.047142982
0.40526342 -0.11950937 0.047546744
0.4052133 -0.11883321 0.04748106
0.40547591 -0.11802053 0.04783392
0.40556026 -0.11728618 0.047948241
0.40568364 -0.11653504 0.048114777
0.40601701 -0.11569297 0.048562288
0.40596575 -0.11501837 0.048495173
0.40616035 -0.11423746 0.048756957
0.40625054 -0.11350206 0.048879027
0.40634847 -0.11276352 0.049011469
0.40669024 -0.11192036 0.049470305
0.40687096 -0.11114708 0.049713492
0.4069739 -0.11040753 0.04985261
0.41050225 -0.10612491 0.054580331
0.41037726 -0.10548618 0.054414392
0.41026789 -0.10484076 0.054269433
0.38095808 -0.039412349 0.015169859
0.38101321 -0.038692594 0.015244484
0.3806625 -0.038109988 0.01477623
0.38107646 -0.037269533 0.01533103
0.38132918 -0.036483914 0.01567018
0.4033305 0.011042774 0.045160055
0.40332377 0.011717796 0.045151711
0.40352678 0.012453437 0.045424104
0.40348804 0.013118923 0.045372963
0.40369397 0.013854742 0.04564929
0.40393668 0.014600724 0.045974612
0.40391028 0.01526913 0.045939922
0.40445822 0.01745221 0.046675086
0.404544 0.01815173 0.0467906
0.4048658 0.020266846 0.04722321
0.40511858 0.021012142 0.047562122
0.40511566 0.021685496 0.047558665
0.40534377 0.022423133 0.047864556
0.40854627 0.029354185 0.052155614
0.40875292 0.030080616 0.052432537
0.4087342 0.030745745 0.052408218
0.40876496 0.03142409 0.052449822
0.40867519 0.032739818 0.052330971
0.40857619 0.033383161 0.052199006
0.40992349 0.088253826 0.054035544
0.40995425 0.088920921 0.05407691
0.40771806 0.11620256 0.051092505
0.40757704 0.11683673 0.050903797
0.40721667 0.11743322 0.050421715
0.40728945 0.11810444 0.050519228
0.40691966 0.11869994 0.050024509
0.40668261 0.11931849 0.049707532
0.40655369 0.11995552 0.049535036
0.40642655 0.120593 0.049364924
0.40649354 0.12126312 0.049454689
0.40638185 0.12190321 0.049305201
0.40644485 0.12257242 0.049389601
0.40626472 0.12320124 0.049148679
0.40626407 0.12385979 0.049147844
0.40418744 -0.12932014 0.044954777
0.40441269 -0.12641639 0.045262933
0.40472251 -0.12557819 0.045679569
0.40480262 -0.12484267 0.045788407
0.40493435 -0.12408447 0.045966506
0.40506357 -0.12332782 0.046140909
0.40511477 -0.12260586 0.046211123
0.40538651 -0.12178686 0.046576738
0.40587634 -0.11947605 0.047237396
0.40608764 -0.11798784 0.047523499
0.40627229 -0.11720967 0.047772527
0.40631402 -0.11649424 0.047829866
0.40664577 -0.11565283 0.048275709
0.40669799 -0.11493346 0.048347235
0.40736407 -0.1118609 0.049245477
0.40754235 -0.11108869 0.049485803
0.4075278 -0.11039969 0.049467683
0.41099358 -0.10614285 0.054116488
0.41066438 -0.10559097 0.053676963
0.41052741 -0.10495704 0.05349493
0.38154656 -0.035193712 0.014815807
0.40382445 0.011031419 0.044706821
0.40374517 0.011685461 0.04460144
0.40396172 0.012425125 0.04489243
0.40384376 0.013067752 0.044735074
0.40418094 0.013841569 0.045187354
0.40436232 0.014569998 0.045431256
0.40493083 0.016759962 0.046194911
0.40514898 0.017497301 0.046487927
0.40531611 0.018219739 0.046712399
0.40537667 0.018911719 0.046794295
0.40570968 0.019680291 0.047241092
0.40592182 0.020414233 0.047525883
0.4060657 0.021128654 0.047719359
0.40914249 0.025347933 0.051844001
0.40949023 0.026785478 0.052311063
0.40946406 0.027448803 0.052276731
0.40908343 0.098550081 0.051818252
0.40892339 0.099179521 0.051604271
0.40878206 0.099812716 0.051415324
0.40871513 0.10046026 0.051325798
0.40859008 0.10109673 0.051158667
0.40858865 0.10175684 0.051156998
0.40845495 0.10239175 0.050978184
0.40848577 0.10305783 0.051019788
0.40804374 0.11748424 0.050432563
0.40798026 0.11813188 0.050347686
0.4076494 0.11873385 0.049904823
0.40762681 0.11938864 0.049874544
0.4072625 0.11998557 0.049386978
0.40700829 0.12060148 0.049046636
0.40690762 0.1212434 0.04891181
0.40679854 0.12188399 0.048765898
0.40692025 0.12256309 0.048929095
0.40689796 0.12321803 0.048899412
0.40694141 0.12388375 0.048957705
0.40443397 -0.1301527 0.044149399
0.40463698 -0.12936014 0.044423342
0.40459371 -0.12867841 0.044367075
0.4047997 -0.12788519 0.044644833
0.40492344 -0.1271292 0.044812322
0.40502453 -0.12638357 0.044949651
0.40530062 -0.12556037 0.045321584
0.40536416 -0.12483218 0.045408368
0.40549064 -0.12407634 0.045579553
0.408198 -0.11103705 0.049237251
0.41149306 -0.1061573 0.053663611
0.41294593 -0.099324912 0.055625439
0.40424383 -0.047645628 0.044065237
0.40417719 -0.046982646 0.043977261
0.40408415 -0.046329081 0.043853641
0.40404069 -0.045657843 0.043796539
0.40395039 -0.045003295 0.043676734
0.40392655 -0.044325233 0.043645978
0.40388167 -0.04365465 0.04358685
0.40385568 -0.042977452 0.043553233
0.40383869 -0.042297244 0.043531537
0.38197714 -0.033131689 0.014247775
0.38249755 -0.031559259 0.014947534
0.3821454 -0.030976057 0.014476657
0.38086087 -0.024398804 0.01276505
0.38073838 -0.023738682 0.012601972
0.40626007 0.0075297654 0.046851635
0.40523708 0.012640238 0.045487046
0.40943277 0.02058056 0.0511204
0.40957534 0.021292582 0.051312327
0.40958083 0.021965787 0.051320434
0.40968758 0.022667259 0.051464319
0.4097501 0.02335611 0.051549077
0.41315913 0.0887025 0.056177855
0.40998852 0.097302586 0.051932931
0.40971553 0.097909674 0.051567197
0.40956998 0.098541781 0.051372528
0.40945941 0.099180788 0.051224589
0.40933836 0.099817857 0.051062822
0.40923053 0.10045752 0.05091846
0.40909719 0.10109243 0.050740123
0.409105 0.10175426 0.050750971
0.40898734 0.10239223 0.050593495
0.40902185 0.10305899 0.050640106
0.40885216 0.10368723 0.050412893
0.40880901 0.10433933 0.050355434
0.40867758 0.10497496 0.050179601
0.40860766 0.10562207 0.050086141
0.40845823 0.10625452 0.049886227
0.4083479 0.10689431 0.049738646
0.40827167 0.10754044 0.049636722
0.40838867 0.11876945 0.049798369
0.40839511 0.11942899 0.049807191
0.40800112 0.12002069 0.049279332
0.40800458 0.12067984 0.049284101
0.40770292 0.12128767 0.048879981
0.40741903 0.12189889 0.048499584
0.40749866 0.12257087 0.048606634
0.40728068 0.12319335 0.048314571
0.4073841 0.12386912 0.04845345
0.40465099 -0.13240346 0.043299913
0.40478957 -0.13163874 0.043487668
0.40488827 -0.13089237 0.043621898
0.40499866 -0.13014111 0.043771863
0.40519774 -0.12935016 0.044040799
0.41122234 -0.10719314 0.052175045
0.41073227 -0.10324585 0.051527023
0.41367447 -0.099932224 0.055480957
0.41383338 -0.099175841 0.055695772
0.41354048 -0.098609149 0.05530417
0.40477592 -0.049707621 0.043651462
0.4047907 -0.049015194 0.043672562
0.40474731 -0.048343778 0.043615699
0.40473986 -0.047659546 0.043606997
0.40467668 -0.046995342 0.043523312
0.4046272 -0.04632619 0.043458343
0.40457445 -0.04565832 0.043388844
0.40451014 -0.044994533 0.043303967
0.4044897 -0.044315279 0.043277621
0.40445906 -0.043639719 0.043237686
0.40452504 -0.042930186 0.043327689
0.40445966 -0.042267054 0.043241143
0.40442979 -0.041591465 0.0432024
0.40450644 -0.040192902 0.043307781
0.40461612 -0.039469033 0.043456197
0.40453726 -0.038810998 0.043351531
0.38325852 -0.032887548 0.014818192
0.38131183 -0.025129795 0.012219667
0.38157803 -0.024344146 0.01257813
0.38134444 -0.023719966 0.012265801
0.38136172 -0.023014992 0.01229012
0.38129324 -0.022337586 0.012199402
0.38140208 -0.021603525 0.012346625
0.38123608 -0.02095741 0.012124896
0.41022545 0.021998107 0.051077247
0.41414022 0.08813715 0.056398273
0.41422457 0.088813454 0.056511879
0.41051626 0.097302318 0.051542401
0.41032374 0.097925067 0.051284671
0.4104532 0.098610461 0.051458836
0.4095782 0.10372414 0.050288081
0.40950048 0.1043696 0.05018425
0.4092834 0.10498908 0.04989326
0.4092496 0.10564286 0.049848557
0.4090097 0.10625845 0.04952693
0.40891027 0.10690022 0.049393892
0.40880996 0.10754186 0.049259663
0.40867209 0.10817674 0.049075127
0.40862608 0.10882841 0.049013615
0.40851843 0.10946892 0.04886961
0.40849972 0.11012554 0.048844934
0.4083727 0.11076263 0.048674822
0.40838838 0.11142537 0.04869616
0.40827668 0.11206529 0.048546791
0.40886563 0.12007716 0.049341083
0.40878731 0.12072229 0.049236298
0.40851676 0.12133515 0.048873663
0.40850025 0.1219908 0.048851848
0.40834647 0.12262353 0.048645735
0.40808225 0.1232381 0.048291445
0.40804791 0.12389092 0.048245788
0.40779734 0.12450817 0.047909856
0.40507704 -0.13456193 0.042729735
0.40503579 -0.13387814 0.042676091
0.40525979 -0.13307402 0.042979002
0.40520918 -0.13239479 0.04291296
0.40541166 -0.13160118 0.043186784
0.41142792 -0.10456237 0.051332951
0.41139239 -0.10388491 0.051286817
0.4112227 -0.1032643 0.051060557
0.41114229 -0.10260585 0.050954342
0.41110587 -0.1019288 0.050907135
0.41444165 -0.099143863 0.055392027
0.41434985 -0.09849295 0.055270314
0.40535051 -0.054506212 0.043288469
0.40532905 -0.053826153 0.043260932
0.40523046 -0.053174198 0.04313004
0.40528268 -0.052467495 0.043201447
0.4052245 -0.051800936 0.043124795
0.4052552 -0.05110234 0.043167472
0.40522349 -0.050426394 0.043126345
0.40527272 -0.04972136 0.043193817
0.40523994 -0.04904601 0.043151259
0.40525454 -0.048353732 0.043172121
0.4052363 -0.047673345 0.043149114
0.40520972 -0.046996027 0.043114781
0.40518445 -0.046318322 0.043082237
0.40510392 -0.045660287 0.042975307
0.40504175 -0.044995755 0.042893291
0.40500033 -0.044323921 0.042838931
0.40495116 -0.042968541 0.042775631
0.40508848 -0.040176421 0.042965412
0.40519506 -0.039453715 0.043109894
0.40513426 -0.038789362 0.043029666
0.40522957 -0.038070947 0.043159008
0.40520048 -0.037395805 0.043121338
0.40525287 -0.036692619 0.043192983
0.40522552 -0.03601709 0.043157578
0.40527368 -0.035315692 0.043223619
0.40528321 -0.034627736 0.043237686
0.38287032 -0.025501698 0.013161778
0.38212711 -0.025043249 0.012164593
0.38212818 -0.024343371 0.012167335
0.38197869 -0.023692131 0.011967778
0.38179612 -0.023051441 0.011723638
0.38197589 -0.022294372 0.011966467
0.38231868 -0.021485597 0.012428045
0.38187391 -0.020928711 0.01183188
0.38202953 -0.020180136 0.012042165
0.41523916 0.087596983 0.056777716
0.41197693 0.094185561 0.052402616
0.41168034 0.094786659 0.052004933
0.41153127 0.095417261 0.051805019
0.41136181 0.096044004 0.051578045
0.41125768 0.096683711 0.051438808
0.41149819 0.09739095 0.051762342
0.41261816 0.10090443 0.053269029
0.41235399 0.10217127 0.052915335
0.41211194 0.10278395 0.052590609
0.40947717 0.108227 0.049056292
0.40912372 0.10948244 0.048582435
0.40912533 0.11014272 0.048585176
0.40892947 0.11076732 0.048322439
0.40895993 0.1114327 0.048363924
0.40881795 0.11206713 0.048173547
0.40876734 0.11271797 0.048106074
0.40871143 0.11336786 0.048031449
0.40868181 0.11402231 0.04799211
0.40862316 0.11467171 0.04791379
0.40923172 0.12136602 0.048735261
0.40923011 0.12202406 0.048733354
0.40905792 0.12265353 0.048502445
0.40907669 0.12331489 0.048528075
0.40888011 0.12394056 0.048264503
0.40871572 0.12457171 0.048043966
0.4054985 -0.13531849 0.042156458
0.40555495 -0.13458994 0.042234302
0.40560859 -0.13386288 0.04230845
0.40590566 -0.13302556 0.042709947
0.41192943 -0.10457614 0.050881386
0.41189414 -0.10389858 0.050835729
0.41173506 -0.10327348 0.050623655
0.41166222 -0.10261181 0.050527453
0.41160089 -0.10194531 0.050446749
0.4147706 -0.099229127 0.054712892
0.415039 -0.098427027 0.055075645
0.41499126 -0.097757846 0.05501318
0.40629059 -0.058486313 0.043416977
0.40608072 -0.056498915 0.043139458
0.40596771 -0.055852294 0.042989016
0.40595359 -0.055169404 0.042971611
0.40586448 -0.054513991 0.042853355
0.40586805 -0.053824753 0.042859554
0.40578198 -0.053168267 0.042745352
0.40584522 -0.052457541 0.042831898
0.40577459 -0.051795572 0.042738438
0.40580946 -0.051095426 0.042786837
0.40577954 -0.039436311 0.042771578
0.4057557 -0.038759202 0.042740822
0.40582645 -0.03804934 0.042837381
0.40590918 -0.037335545 0.042950034
0.40588349 -0.036659479 0.042916775
0.40583265 -0.035992116 0.042849898
0.40582466 -0.03531006 0.0428406
0.40581876 -0.034627378 0.042834044
0.40578508 -0.033954352 0.042790174
0.40577966 -0.0332717 0.042784452
0.40578657 -0.032584965 0.042795062
0.38303369 -0.025626421 0.012231588
0.38251615 -0.022296816 0.01154232
0.38226879 -0.021676779 0.011211157
0.38248509 -0.020908475 0.01150322
0.3827669 -0.020119727 0.011883497
0.38228756 -0.01957339 0.011240244
0.41581398 0.075077251 0.056441426
0.41570717 0.075713933 0.056298614
0.41447675 0.078746796 0.054648161
0.41597599 0.086323619 0.056671262
0.41256297 0.093537048 0.052090883
0.41250175 0.094184875 0.052009225
0.41223198 0.094791204 0.051647067
0.41220844 0.095446646 0.051616073
0.41298759 0.10153268 0.052668929
0.41295379 0.10218488 0.052624106
0.41279811 0.10281388 0.052415371
0.41271544 0.10345685 0.052304745
0.40948462 0.11209142 0.047969103
0.40929264 0.11337677 0.047712088
0.40925467 0.11402974 0.047661662
0.4092024 0.11468014 0.047591805
0.40914887 0.11533037 0.047520399
0.40911645 0.11598423 0.047477365
0.40903652 0.11662981 0.047370315
0.40967345 0.12332577 0.048231244
0.40949118 0.12395373 0.047986746
0.40943152 0.12460202 0.047906995
0.40929127 0.12523717 0.047719002
0.40840364 0.12706783 0.046526909
0.40583354 -0.13752156 0.041462183
0.40597057 -0.13675541 0.041648626
0.4059844 -0.1360459 0.041669488
0.40609032 -0.13529453 0.041814089
0.40950954 -0.12045398 0.046455979
0.40997213 -0.11815843 0.047084689
0.41259485 -0.10521287 0.050648451
0.41237146 -0.1046153 0.050349593
0.41232026 -0.10394436 0.050282717
0.4122476 -0.1032826 0.050186753
0.41223419 -0.10259581 0.050170541
0.41213888 -0.10194367 0.050044298
0.41530359 -0.09922877 0.054307699
0.41521227 -0.098577529 0.054186821
0.41538256 -0.097816736 0.054417849
0.40705132 -0.060467899 0.043308854
0.40690982 -0.059143573 0.043121696
0.40680635 -0.058493525 0.042984128
0.40677953 -0.057815075 0.042949677
0.40665382 -0.057173222 0.042782068
0.40661031 -0.056501001 0.042725205
0.40650022 -0.055853337 0.042578697
0.40645361 -0.055182308 0.042517424
0.40639311 -0.054516405 0.042437792
0.40642875 -0.053815454 0.042487383
0.40637326 -0.053147882 0.042414308
0.40652412 -0.033199906 0.042662024
0.40636349 -0.032570451 0.042447448
0.4065246 -0.031831443 0.042665601
0.40639436 -0.031191617 0.042491913
0.4065659 -0.030449539 0.042724252
0.3829965 -0.020920098 0.011040688
0.38213116 -0.020496905 0.0098773241
0.38296878 -0.019531012 0.011006117
0.38284886 -0.018870205 0.010846138
0.41657007 0.074468106 0.056360126
0.41632396 0.075073674 0.056029797
0.41623741 0.075714827 0.055914164
0.41599965 0.076322645 0.05559504
0.41598892 0.07698068 0.05558157
0.41583514 0.077607229 0.055375218
0.41555017 0.078205302 0.054992795
0.41537195 0.078826964 0.05475378
0.4149791 0.079402208 0.054225802
0.41510653 0.080090433 0.054398179
0.4151684 0.080764219 0.054482102
0.41495889 0.082040012 0.054201841
0.41483331 0.08267355 0.054033756
0.41475254 0.083316684 0.053925753
0.41348881 0.092296943 0.052235603
0.41336262 0.092931509 0.052066684
0.41310716 0.093540221 0.05172348
0.41309959 0.094198734 0.051714063
0.41296458 0.094831824 0.051533103
0.41311103 0.1014552 0.05173707
0.41011024 0.11408702 0.047711611
0.40976202 0.11468521 0.047243714
0.40980321 0.11535195 0.047299623
0.40970445 0.11599416 0.047167301
0.40962213 0.11663929 0.047057152
0.40963107 0.11730021 0.047069788
0.40955442 0.1179463 0.046967268
0.40918213 0.12776594 0.046474218
0.40901864 0.128398 0.046254754
0.40889376 0.12903635 0.046087265
0.40636563 -0.13963613 0.041032076
0.40629244 -0.13896602 0.040935755
0.40633798 -0.13824132 0.040999413
0.40634489 -0.13753459 0.041010857
0.40653723 -0.13674292 0.041272283
0.40924525 -0.12569919 0.044951677
0.40917629 -0.12503091 0.044860721
0.40924531 -0.12430102 0.044955969
0.40949839 -0.1234895 0.045299053
0.40941846 -0.12282643 0.045193553
0.4096452 -0.1220274 0.045501232
0.40965462 -0.12132505 0.045516014
0.40981972 -0.12055403 0.045740604
0.41003668 -0.11976057 0.046035051
0.41000611 -0.11907652 0.045995951
0.4102897 -0.11825451 0.046380162
0.41044122 -0.11749104 0.046586394
0.41052687 -0.11675674 0.046704054
0.41086417 -0.11591274 0.047160387
0.4109208 -0.11519182 0.047238946
0.41108924 -0.11442244 0.047467947
0.41146868 -0.11356175 0.047981143
0.41207147 -0.1119101 0.048797488
0.41307586 -0.10592821 0.050167203
0.41298664 -0.10527349 0.050049067
0.41283238 -0.10464641 0.049843192
0.41277593 -0.10397768 0.049769163
0.41275764 -0.10329285 0.049746394
0.41280556 -0.10258004 0.049813151
0.41277391 -0.10190105 0.049772501
0.41514647 -0.10020897 0.052970886
0.41592747 -0.099190176 0.054025173
0.41549182 -0.098683566 0.053440332
0.41517472 -0.098126739 0.053014994
0.40768987 -0.06180656 0.043038011
0.40757519 -0.061160773 0.042885184
0.4075641 -0.060476273 0.042872071
0.40746486 -0.059824675 0.042739987
0.40743911 -0.059145749 0.042707086
0.40733951 -0.05849424 0.042574763
0.4073174 -0.057814091 0.04254663
0.40715307 -0.05649823 0.042328715
0.40717834 -0.030423045 0.042425036
0.40701544 -0.029794455 0.042207122
0.4071089 -0.029079229 0.042334437
0.38270795 -0.020487756 0.0095018148
0.3834998 -0.019536346 0.010569811
0.38081098 -0.017588854 0.0069538355
0.41077709 0.013476521 0.04736197
0.41074145 0.014140159 0.04731524
0.41088873 0.014856666 0.047514915
0.41729766 0.073852912 0.056241035
0.41711032 0.074471295 0.055989504
0.4169215 0.075089529 0.055736184
0.41686583 0.075737476 0.055662036
0.41660911 0.076341003 0.055317163
0.41655648 0.07698974 0.055247188
0.41642326 0.077620775 0.055068612
0.41633296 0.078261301 0.054947853
0.41611272 0.078873545 0.054652095
0.41583008 0.079472527 0.054272294
0.41584116 0.080135345 0.054288149
0.41562802 0.08074975 0.054002047
0.41567117 0.081419393 0.054060936
0.41422147 0.091678441 0.052121758
0.41400498 0.092294559 0.051831007
0.41392201 0.092937797 0.051719904
0.41374153 0.0935615 0.05147779
0.41383153 0.10215078 0.051608801
0.41360348 0.10276614 0.051302433
0.41047853 0.11603653 0.047108173
0.41034889 0.11667326 0.046934366
0.41018218 0.11730365 0.046710372
0.41014779 0.11795701 0.046664715
0.4100886 0.11860606 0.046585679
0.4099924 0.11924881 0.046456814
0.40684623 -0.14177594 0.040531993
0.40668374 -0.14114699 0.040315151
0.40678453 -0.14039606 0.040453553
0.40669197 -0.13973472 0.040331125
0.40677661 -0.13899168 0.040447474
0.40701115 -0.13817981 0.040766239
0.40942127 -0.12936023 0.044041991
0.40940237 -0.12866864 0.044018865
0.40935928 -0.12798807 0.043962955
0.40946567 -0.12724033 0.044108748
0.40939838 -0.12657085 0.044020057
0.40960455 -0.12577894 0.044300437
0.4094969 -0.12512776 0.044157624
0.40968472 -0.12434468 0.04441309
0.40981114 -0.12358937 0.044585824
0.40981328 -0.12288967 0.044591069
0.41010588 -0.12206122 0.044987917
0.41007322 -0.12137744 0.044945955
0.41031373 -0.12057295 0.045272589
0.41053861 -0.11977586 0.045578122
0.4105292 -0.11908248 0.045567632
0.41082227 -0.11825618 0.045965075
0.41086596 -0.11753997 0.04602623
0.4110285 -0.11677185 0.046247721
0.41136616 -0.11592755 0.046705127
0.41137874 -0.11522579 0.046724319
0.4115358 -0.11446127 0.0469383
0.41174591 -0.11367401 0.047223926
0.41175485 -0.11297467 0.047238111
0.41341388 -0.10670504 0.049492836
0.41345739 -0.10599339 0.049553514
0.41344464 -0.10530597 0.049538493
0.41336375 -0.10464758 0.049431562
0.41331446 -0.1039758 0.049367309
0.41324145 -0.10331416 0.049270749
0.41332406 -0.10258666 0.049384236
0.41628605 -0.099952996 0.053382993
0.41522676 -0.098328203 0.051960707
0.4152109 -0.097644627 0.051941514
0.41544676 -0.096855968 0.052261591
0.40824604 -0.062487483 0.042657614
0.40821087 -0.061811924 0.042611957
0.40810233 -0.061163753 0.042467475
0.40808016 -0.060483396 0.042439461
0.40797251 -0.059834927 0.04229629
0.40798098 -0.059143245 0.042309403
0.4095403 -0.053755909 0.044424772
0.40847498 -0.043165326 0.043016434
0.40900755 -0.042291999 0.043736458
0.40766025 -0.029757023 0.041951776
0.40773439 -0.029048413 0.042053342
0.40762395 -0.02840215 0.041906118
0.40771216 -0.02768907 0.042026639
0.38477302 -0.019305378 0.011134386
0.41108888 0.013412923 0.046667814
0.41115671 0.014106721 0.046760917
0.41125613 0.014809459 0.0468961
0.41795772 0.073222816 0.056031108
0.41783565 0.073855609 0.055867553
0.41768962 0.074483186 0.055671692
0.41753882 0.075109825 0.055469275
0.41744596 0.075749412 0.055345058
