# .PCD v0.7 - Point Cloud Data file format
VERSION 0.7
FIELDS x y z intensity
SIZE 4 4 4 4
TYPE F F F F
COUNT 1 1 1 1
WIDTH 1093
HEIGHT 1
VIEWPOINT 0 0 0 1 0 0 0
POINTS 1093
DATA ascii
1.5804809 0.395316 0.49474141 -0.40024221
1.3176219 0.7177785 0.28988263 -0.7747488
0.042450465 0.74894196 0.22261733 -0.056983028
0.090972088 0.80614859 0.19373317 -0.29486179
0.16623193 0.03430682 0.38732964 0.37693435
0.10954813 0.53958392 0.16467083 -0.71116006
0.062124174 0.41373184 0.28158054 0.84612459
2.6192896 0.25490642 0.35875621 -0.80022931
1.9506673 0.70699525 0.46658808 0.26828915
1.2743212 0.51294142 0.24892339 -0.68322831
0.78565013 0.94308144 0.043298107 0.87662226
2.2476902 0.47406256 0.43029341 0.4139221
1.5251081 0.6352461 0.29847607 -0.36534372
0.52449 0.92629379 0.48724937 0.58661419
1.0200769 0.53765976 0.072123133 0.63936663
2.3776987 0.86175871 0.30652288 -0.67163414
1.706262 0.54622191 0.26610917 0.98058313
0.17748995 0.030065117 0.2162258 0.96314007
2.9194398 0.5190478 0.30662706 0.16712987
2.9793313 0.47384092 0.26350865 -0.49556071
0.327261 0.12396947 0.023182593 0.85175103
0.15078983 0.020863917 0.23972754 -0.82913327
1.6755711 0.62370133 0.30170557 -0.94673032
1.4563801 0.21645686 0.39693925 0.16264212
2.2880363 0.32609683 0.023870878 0.46552625
1.0684859 0.48019338 0.071444392 0.98792559
2.9977236 0.75614291 0.025842575 0.97705472
0.68995142 0.57870245 0.24691567 -0.98278761
2.1080158 0.54019654 0.3114939 0.25880566
1.6831813 0.10244289 0.07161206 0.3587524
2.1784327 0.74663526 0.23533702 0.63481289
2.8892763 0.26455253 0.13290916 0.17731263
1.7719482 0.3135601 0.27380648 0.84043407
2.3812604 0.69050175 0.13805994 0.37898389
1.3399339 0.32780504 0.39267311 0.029885303
2.7195225 0.27917752 0.0078496197 -0.17246166
2.458122 0.63868707 0.18105733 -0.85869664
2.2233899 0.50533879 0.2500093 -0.59817749
0.75592208 0.97069263 0.33943921 0.6451984
0.70573556 0.94469678 0.47041851 0.47768372
0.77477062 0.48844996 0.38635296 0.15603097
0.53685516 0.048825812 0.42250249 -0.12321097
1.1298926 0.63035113 0.15111239 0.84941506
2.728586 0.31792402 0.44615892 0.18670808
2.8698332 0.25443247 0.054668576 0.093223028
2.2793138 0.60935575 0.082507588 0.035235889
1.7401452 0.84389365 0.11340572 0.44588071
2.3657713 0.16764845 0.32059407 0.14054187
1.9682952 0.41389409 0.049428806 0.50515038
1.3881596 0.94386256 0.23032324 0.51805222
1.7226411 0.76287127 0.061244547 -0.54877287
0.2423858 0.014806895 0.10632253 0.11221901
0.8077181 0.3219822 0.36757368 0.087031886
2.794014 0.90016252 0.020377964 -0.46584094
2.2321684 0.26756737 0.16333996 -0.40206027
1.3056474 0.96786809 0.28974694 0.27394268
1.1452864 0.67835146 0.46318218 0.53344613
1.8666421 0.38701084 0.34191638 0.58928323
0.44964626 0.80632186 0.34008506 0.6920321
2.4633863 0.89281517 0.13404185 0.2711044
0.64439219 0.0032310467 0.05968938 0.43840608
2.7101808 0.16013469 0.32876086 -0.057650812
1.2831062 0.98420167 0.090048149 0.58875358
2.8562093 0.75959015 0.47711605 -0.99850434
1.3138249 0.88059646 0.089156963 0.18046702
0.80282187 0.86214668 0.12829171 -0.74753183
2.0054057 0.93675351 0.32408339 -0.53120798
2.4887061 0.91625047 0.28998274 0.13309826
2.7584445 0.69934422 0.095250726 0.46862519
2.5784369 0.84802318 0.23516239 0.86154294
2.4966745 0.65042108 0.075049423 0.35288361
1.2300338 0.10433093 0.059063204 0.54385877
2.9547822 0.29644033 0.4540543 0.75760406
0.47576112 0.164692 0.33501205 0.48116684
0.30433661 0.31819081 0.15832648 0.79304272
0.70332378 0.89661843 0.48769015 0.4617683
1.7878881 0.16588177 0.48839891 -0.63367516
0.041714773 0.44712263 0.37131131 0.53838921
0.29263118 0.89272141 0.31521213 -0.47733501
2.9911571 0.74855065 0.17775396 0.9459393
0.13497303 0.2636165 0.11725722 0.61073416
1.2849256 0.90453851 0.015316832 -0.41073787
0.66818804 0.34728661 0.23038414 -0.62848812
0.7317152 0.43614858 0.3055467 0.51960325
1.8060911 0.58789122 0.14765468 -0.15219417
0.10504153 0.037931956 0.23103251 0.39767271
2.7919602 0.092489272 0.32005629 0.78311735
2.5231199 0.99562049 0.45484278 0.65809286
0.77771097 0.1442 0.044804502 0.06263651
0.14621556 0.12024267 0.10864978 0.81440359
1.4025879 0.6780678 0.36431924 0.13430309
0.34264925 0.33973187 0.27565107 0.14874031
2.7828693 0.8466115 0.16609102 0.88791072
2.6536303 0.79424703 0.047597244 0.4455905
2.6602089 0.73530704 0.37145129 0.18332884
2.1927826 0.65258813 0.30690363 0.97049361
2.3903644 0.70341623 0.33885503 0.53657997
2.4709768 0.89500958 0.058497261 0.87356466
1.7192323 0.84563303 0.0013112887 0.061881516
0.55609459 0.55392468 0.20177031 0.33896381
1.2016085 0.73572266 0.037812427 0.8552388
1.5899091 0.17081934 0.050138209 -0.74988186
2.7183793 0.84317905 0.072241157 -0.088838123
1.4873015 0.75828958 0.31360924 0.87766594
1.3851174 0.30492857 0.069040984 0.85609418
0.59981447 0.2550765 0.28827646 0.31904674
0.30212849 0.57917553 0.23015471 0.85822308
0.39930061 0.86385 0.19953115 -0.39909092
1.7987181 0.47468716 0.40935796 0.38862717
1.9365195 0.9189924 0.27312422 -0.3451013
2.2865143 0.69073075 0.094343431 0.77381569
1.3470609 0.81590533 0.27524695 0.73217833
0.36250174 0.68857586 0.098045409 0.96231622
2.8309572 0.77264374 0.046893828 0.13308556
1.0554578 0.55409706 0.16521811 -0.54524159
1.2538413 0.72949851 0.0092779147 0.052559346
0.61255699 0.83727181 0.073531084 0.54907644
2.2687924 0.69331062 0.20066252 -0.44469336
1.152124 0.59001189 0.38818705 0.49918491
1.2177519 0.326868 0.37189388 -0.41974643
0.046331607 0.93987858 0.42376164 0.8772887
2.137567 0.94131094 0.0017290397 0.19302475
1.4862239 0.33389428 0.27463052 0.74006528
0.19017842 0.56781685 0.46543744 0.80273539
1.215266 0.077937052 0.058635313 0.48405844
2.3137429 0.5185957 0.33989418 0.46586695
0.32582277 0.45616248 0.49417531 -0.45642543
2.3490915 0.73213834 0.020638023 0.39542311
2.0160508 0.88879931 0.37878528 -0.84638232
2.4903307 0.76102865 0.2244404 0.97655469
0.28476891 0.99814188 0.11943666 0.47494733
1.6978762 0.1697482 0.21294713 0.9131422
0.74305576 0.54316485 0.066200107 0.0567987
0.18528166 0.81218857 0.087110944 0.5111044
0.80505323 0.1625725 0.34244651 0.15414472
2.6841326 0.72616905 0.42492798 -0.29981673
1.844905 0.60742652 0.4756335 -0.66476423
1.1053656 0.4001478 0.3852984 -0.60986549
1.1948689 0.0094701331 0.31084698 0.8927452
0.537655 0.047588196 0.46764791 -0.71928924
1.7722592 0.06769602 0.22291824 -0.04245913
2.6396539 0.62005836 0.41144088 0.44470704
2.3478925 0.50777477 0.099808626 0.032025181
0.70183146 0.049473193 0.12203474 0.54673654
1.9706992 0.19533648 0.14699538 0.076064795
1.7864528 0.064587571 0.24436656 0.98132175
0.22217311 0.11042705 0.47901115 0.75982815
0.47404575 0.89331812 0.34008983 0.24630496
2.8830423 0.12601613 0.20064098 0.5226962
2.2382236 0.22416371 0.49456722 -0.41388386
2.1958153 0.18875165 0.10302355 0.8976469
0.71467453 0.4501166 0.40739724 0.68537372
1.9363592 0.10878523 0.46023974 0.722812
0.52011842 0.40921262 0.11735562 0.74229151
1.558919 0.19273356 0.25035328 0.032964721
0.25815499 0.18088618 0.21321161 0.14119735
0.92070693 0.82770514 0.44398224 0.15893044
0.15560664 0.87709892 0.2908411 0.35142207
0.1975517 0.78772926 0.37484482 0.9122262
0.71353763 0.56448412 0.099599987 0.6498968
2.0198081 0.11967947 0.062118135 0.53992653
1.5866762 0.35894752 0.047036339 0.14559522
1.6550432 0.59477925 0.36309332 -0.086801782
2.3269963 0.15260987 0.34239927 0.24770319
2.9409451 0.57276303 0.067772269 0.096551768
1.3495858 0.71722674 0.40799564 -0.4528625
1.514868 0.56568092 0.40989396 0.2284057
0.39049521 0.018987888 0.31305042 0.41030329
0.41600209 0.75033712 0.32503828 0.0026783403
0.32785392 0.74414927 0.35804561 -0.017102849
1.0167855 0.44227785 0.14934923 0.34378177
1.7846631 0.98349696 0.09858083 -0.27439174
1.6687801 0.33270621 0.30369332 0.018365853
0.1497988 0.42337796 0.26091722 -0.33533314
2.9671767 0.34162235 0.14884542 0.35767189
1.0818307 0.92379171 0.46132919 -0.50216711
2.0223863 0.57273501 0.083418533 0.35024035
0.95065278 0.88292825 0.22218958 -0.032561697
0.97561824 0.74307764 0.38520336 0.76028138
2.1797237 0.96756834 0.24764827 0.84850383
0.90082365 0.10268322 0.14447828 -0.94937754
1.5781835 0.81079102 0.45254821 -0.45463979
0.45724016 0.20278728 0.31717202 -0.46092907
0.3797369 0.55700243 0.0061506308 0.40212333
0.38921219 0.17913833 0.29206061 -0.66013503
0.18619975 0.028500382 0.051217213 -0.83818197
2.314734 0.87284112 0.15368323 -0.50554222
2.5212283 0.80266303 0.3904936 0.42205206
2.7160387 0.069943771 0.24544574 -0.70577776
2.6422043 0.39598793 0.47326374 0.099444523
1.7963256 0.58087152 0.27308589 0.17606252
0.41362178 0.55847305 0.26303098 0.80283397
2.2128341 0.11018317 0.35711649 0.39903396
0.41605064 0.81666744 0.093475334 0.73078465
2.0685256 0.49431714 0.20420708 -0.41024598
0.89094049 0.18940136 0.33530101 0.60697919
0.7780354 0.16149352 0.3168669 0.42023978
1.6724443 0.58026129 0.08661405 0.46877
0.48339847 0.71939993 0.44080541 0.89702028
0.83361894 0.40767279 0.28330904 0.046453178
1.5535679 0.28085107 0.40758118 -0.030381482
0.29255548 0.002113048 0.28340054 0.36108109
1.4892906 0.9752152 0.15847252 0.38023102
0.49384975 0.9875471 0.49786836 -0.72811484
0.4471218 0.62947053 0.28202084 0.11956617
0.62919557 0.73726976 0.43138936 -0.88740599
1.3700089 0.74438953 0.33493572 0.20362794
0.45618704 0.23648952 0.37501353 0.0097548924
1.5520217 0.56518942 0.1632289 -0.15542275
1.7019074 0.89325887 0.20094305 0.19119798
2.6054223 0.71883118 0.42857149 0.099271975
2.1191347 0.85287976 0.22852619 0.56625646
1.4470509 0.021094022 0.28097045 0.076246455
2.2750914 0.4247196 0.031473417 0.6451003
0.5073275 0.73281825 0.47478804 0.96351451
2.9079232 0.69960314 0.49554491 -0.54005492
0.79437762 0.31754762 0.050753724 0.49628505
0.63241941 0.50339359 0.44791383 0.23784165
0.66667414 0.7529707 0.056185603 0.78580886
1.8175513 0.56942356 0.3920109 0.26460209
1.7715528 0.34596267 0.39014143 -0.95335591
2.3120468 0.84322971 0.28195739 0.81937432
1.7281438 0.51349086 0.13048147 -0.36393285
0.63928199 0.25205272 0.016002044 -0.56634039
1.708801 0.13351154 0.15499078 0.34122044
1.9107153 0.20580922 0.42984369 0.57738948
2.8763397 0.97205859 0.39386639 -0.30610913
1.6244465 0.57175457 0.32641551 0.39599928
2.7531517 0.43311384 0.24044056 0.065198466
0.82903057 0.04479593 0.31409547 0.55717438
1.6748604 0.88915384 0.19887359 0.31414238
0.42361978 0.42975128 0.12463366 0.13242082
1.6897885 0.55924886 0.24560688 0.6005038
2.2951744 0.35090113 0.029648874 0.17151392
0.9688791 0.84703052 0.14423414 0.59332556
1.2563553 0.94129926 0.4982208 -0.99049312
1.1232393 0.47732273 0.012450892 -0.047730125
1.5663561 0.65309268 0.25157404 0.24121642
1.6267397 0.9008953 0.42589313 0.05035948
0.99193972 0.1010536 0.19713005 0.68172818
1.9809074 0.88547385 0.047038659 -0.72391832
0.70912492 0.15337506 0.074599266 -0.32199597
0.0012167729 0.43766677 0.21188825 -0.742428
1.1368982 0.42021814 0.37784648 0.26013744
2.6926227 0.78059477 0.20206788 -0.74102139
1.3010623 0.90728384 0.25003251 0.92780203
2.4245374 0.35185128 0.32969359 0.41647717
1.3587146 0.05364728 0.016367558 0.33962202
2.8173635 0.12681243 0.26928395 0.52648836
0.84056252 0.68776643 0.3674154 0.84177929
0.37629962 0.15860732 0.34989187 -0.48680225
1.7364763 0.45547673 0.1288892 -0.57090104
0.70821446 0.66191417 0.44801292 0.0092768008
1.707594 0.39609084 0.32284647 -0.86786848
2.2438264 0.30508012 0.25810146 0.60254097
1.0761822 0.54893804 0.15702717 0.89354563
2.0272512 0.85262221 0.23667234 0.86781383
1.621166 0.20817548 0.11826552 -0.0025344309
1.1003484 0.93631482 0.085110553 0.83682472
1.1753746 0.4279995 0.21098728 -0.11641096
0.26974097 0.31800041 0.14881097 -0.02266496
2.1422737 0.94331491 0.018244427 -0.61389989
0.74518508 0.55269176 0.33144018 -0.17863269
0.30488929 0.97693473 0.4524855 0.33214065
2.4886708 0.37831566 0.36665908 -0.89016324
1.7594734 0.96984923 0.017883725 0.8598218
2.718492 0.20598856 0.44944108 0.89386666
1.9019642 0.32085672 0.46290928 0.17170514
1.9165714 0.22344051 0.1915067 -0.94115484
0.50026625 0.41950226 0.40749088 -0.75454867
2.9165821 0.47786212 0.01113644 0.22147129
1.3643905 0.92724389 0.42560199 0.85306138
0.91667861 0.58452213 0.32714969 0.67615199
1.6631141 0.69006681 0.42266229 -0.61839384
2.6881661 0.74420679 0.37924546 -0.40986967
0.19519055 0.68430948 0.12697257 0.11176194
2.7232502 0.63695854 0.028434515 0.22351632
0.16938236 0.87185079 0.24482794 0.085964352
1.0491388 0.51192874 0.051239274 0.41352931
1.3175179 0.95368254 0.044431776 0.23419647
1.614614 0.74316293 0.31839141 0.27772814
1.2996893 0.48210743 0.27655572 0.98785543
0.67894262 0.31160238 0.42966428 0.87413317
2.9877357 0.11327373 0.49764919 0.71098572
2.2506969 0.052167408 0.48908368 0.4200792
2.7720547 0.46782324 0.41767392 0.82119334
2.939256 0.9378264 0.039120443 -0.74322617
2.6745267 0.16710444 0.081828386 -0.71085918
2.7308021 0.8004396 0.26114482 -0.96950865
0.84764111 0.075401083 0.33639112 -0.47341627
1.1610104 0.53211087 0.40011948 -0.85125399
1.9361538 0.79553735 0.14328863 -0.81314939
2.5431142 0.26474461 0.10115496 0.31516886
2.1977036 0.037657771 0.022727039 0.13695946
2.9264524 0.12369496 0.065622218 0.60097927
0.8723982 0.29490122 0.14835335 0.60320026
0.28602245 0.81899637 0.27228194 -0.86633646
2.6831923 0.21734616 0.44337454 0.8442027
2.2483711 0.68698806 0.33215812 -0.81547523
1.4475763 0.95089346 0.39522922 0.99069053
0.64691424 0.99276841 0.050976571 0.84461778
0.091278479 0.14740722 0.33026287 0.017730981
0.81330657 0.79177016 0.4364517 -0.31429526
0.26001421 0.16961011 0.38148418 0.54603666
2.9658194 0.30753222 0.27995002 0.64901173
1.5746351 0.44664916 0.082202397 0.82300615
0.40091175 0.82872105 0.3345885 -0.15151198
2.3388436 0.45963547 0.47319642 0.98575783
1.3572115 0.048346005 0.47172928 -0.55150998
0.58725965 0.6039843 0.24437016 -0.59943378
1.1872634 0.36164373 0.014378491 -0.55272245
1.5937616 0.79172534 0.33221903 -0.44041899
0.29777265 0.22433814 0.20143212 -0.12759222
2.0129619 0.56726903 0.44923565 0.4138737
1.1879703 0.56764829 0.21039362 0.52681381
0.081851296 0.36718011 0.085428603 -0.56093717
1.2465783 0.11431574 0.48125881 -0.166162
2.1549001 0.45125794 0.039067369 0.34216341
2.438705 0.10689172 0.29824015 -0.96753335
2.6958511 0.26091841 0.43200794 0.99362373
1.4557697 0.26688012 0.31100526 0.46873164
2.5024474 0.52048182 0.48043424 0.69041771
0.26439044 0.38165569 0.20287192 0.34624174
2.2465074 0.57660103 0.29755077 0.49308574
2.0727503 0.55761909 0.38782063 -0.7723496
0.026631162 0.85377598 0.26163563 0.4653362
2.8820031 0.11975161 0.08296714 0.57785428
1.1420101 0.029950149 0.42857966 0.59777975
0.89049083 0.47916985 0.011085235 0.39293829
2.998955 0.9830389 0.18055932 0.26334551
1.0940839 0.76686251 0.10159788 0.34059128
1.0303906 0.79829729 0.13894618 0.10314094
1.0677491 0.053533588 0.22179855 -0.90561968
2.7219288 0.9668684 0.09328609 0.60393184
0.25986001 0.35250646 0.36363101 -0.59812993
1.1473699 0.5844214 0.1666083 0.03786061
0.19077373 0.35538709 0.40513316 0.1897288
1.015278 0.17138496 0.075512387 0.10936187
2.8147423 0.35422051 0.40832552 0.84513295
0.45755339 0.09454339 0.15804565 -0.47469744
0.44423094 0.75968838 0.43661383 0.16615967
2.1796703 0.059799813 0.46168193 0.43953037
1.2369188 0.65062588 0.14023341 0.38428861
0.70514184 0.6136834 0.23702487 0.89591557
2.9072115 0.28431603 0.18094072 0.92248952
1.367103 0.51290619 0.005308561 -0.81815469
2.6013801 0.82726818 0.33782971 0.05893359
2.7654347 0.99175072 0.26403937 0.20966563
2.2543173 0.40130636 0.062637553 -0.56601238
1.3833184 0.048638951 0.14558634 0.62023729
2.0977945 0.57163948 0.33408764 0.80293638
0.5559687 0.14222503 0.11647532 0.46318021
1.2796232 0.59483206 0.23094495 0.64672613
0.32321492 0.47250703 0.13809523 0.92459512
0.89932561 0.95184988 0.49725479 0.66476029
2.8308017 0.52258831 0.14573765 0.085118987
2.7716839 0.4167504 0.086517774 -0.84499764
1.3961681 0.46420822 0.12920661 0.49396262
0.1075431 0.92658848 0.049483161 0.66351181
0.20644058 0.33191696 0.187782 -0.51393622
2.7802472 0.8374539 0.18879831 0.10346209
0.92988276 0.65378708 0.0046762051 -0.17079166
1.816911 0.003861987 0.41566142 -0.35228735
1.5793508 0.12279817 0.1221386 -0.64896524
1.6186458 0.41731277 0.41767284 0.014813811
2.644563 0.093758926 0.084796071 0.75210601
0.061042294 0.26855847 0.069269635 0.26748288
1.8014263 0.51410329 0.29225779 -0.41832656
1.0546715 0.96211219 0.28085592 -0.015445704
1.8476979 0.57106423 0.13562711 0.66460878
1.7247788 0.10257709 0.38538691 0.30412954
0.67612576 0.015051022 0.27586073 0.29477152
1.2970914 0.38706714 0.38493088 0.94165426
1.4424782 0.9394539 0.11562672 -0.49647948
0.62403715 0.3697927 0.29516724 0.42546341
2.6516879 0.17485 0.16785614 0.70635951
0.41088656 0.8974241 0.44848564 0.25858438
1.4054651 0.16822547 0.48719886 0.13024384
0.81240767 0.74517155 0.072395563 -0.5114665
2.2806675 0.69651258 0.13055083 0.57775897
0.25073913 0.030963451 0.25323555 -0.30678266
2.911252 0.73772448 0.03278964 0.53528923
0.32255164 0.65591377 0.49345878 0.97423959
2.4922912 0.32262984 0.11343318 0.9031778
0.66016185 0.12383761 0.36029369 0.065626994
0.87618929 0.69498509 0.36597848 -0.31140307
1.3204699 0.87674809 0.029521737 0.60113752
1.7197819 0.32014513 0.19648275 -0.029478963
1.0533258 0.89943659 0.11062306 0.96457791
1.9114833 0.28682539 0.24997786 0.23403493
2.8282175 0.48687327 0.36804575 0.32050869
2.4285092 0.96295786 0.37061441 0.088671155
0.26038644 0.46181622 0.35904968 -0.8634243
0.47040397 0.45005634 0.47086212 -0.20912614
0.9804132 0.00076769339 0.39866856 0.70019513
0.96273851 0.19030261 0.27845269 0.016064283
0.26921758 0.77815151 0.49677369 0.18070087
0.19493076 0.49350309 0.2357893 0.023148196
2.941129 0.20767011 0.39060947 0.36963835
0.51188391 0.52244776 0.40971825 0.77227038
2.9527919 0.53753591 0.31814101 0.42319602
2.9627767 0.57800627 0.36901164 0.94318992
1.7363218 0.5353604 0.10723084 0.69906032
2.1769891 0.77136707 0.2858541 0.44620666
1.6485558 0.56525558 0.27115124 -0.15651345
0.17627607 0.013881108 0.31110579 0.11740515
0.66465366 0.40343055 0.41450724 -0.82346243
2.7776351 0.64845103 0.32480133 0.73042703
0.55796075 0.28588468 0.02560384 0.52073741
2.5916727 0.78923094 0.24398789 -0.67200541
0.97377414 0.70243746 0.17117581 0.15076318
1.4214135 0.91405982 0.43282831 0.069969378
1.4379463 0.40795913 0.31890932 -0.38577765
1.2655207 0.26003021 0.28860459 -0.069825664
1.9903823 0.40622368 0.017785316 -0.23198269
0.16402407 0.68517327 0.24974072 0.7219848
2.9131739 0.5506891 0.20712037 0.50484657
1.0197603 0.90221649 0.13880685 -0.006465619
1.8139619 0.61996531 0.35738292 0.23537546
1.6020756 0.58042246 0.050890807 0.040021807
2.9651449 0.73960024 0.27570736 -0.76933455
2.9988914 0.12862389 0.026806632 -0.010726242
1.6045427 0.089183897 0.12621517 -0.23143326
2.3230715 0.75191182 0.41509193 0.23624533
0.90780276 0.24442458 0.29018199 -0.072436951
0.43992326 0.85797769 0.15351623 0.25388515
1.4338291 0.021798331 0.41487676 0.035904627
1.8066624 0.93153512 0.012654406 -0.22819284
2.0134063 0.57672352 0.00041210372 0.012297697
2.1160421 0.054437473 0.16692857 0.72058493
0.4308641 0.5862875 0.41485861 0.75393564
1.0145979 0.65990108 0.33169684 -0.077599302
2.7129769 0.24375762 0.14166063 0.15290023
0.30520594 0.59035373 0.40113088 -0.26096496
1.8364562 0.63201535 0.29582328 0.64311856
1.6906514 0.61695534 0.40248761 0.70405769
0.58103669 0.80579942 0.45272589 0.69707894
2.5807106 0.23930895 0.06961064 0.011574861
2.4767895 0.96893853 0.46091843 0.49138728
1.8865187 0.58523047 0.402298 -0.40050429
2.4869642 0.087917238 0.29206598 0.79217023
2.0348129 0.38639379 0.25520086 0.87126905
0.055227321 0.10204831 0.25239792 -0.25412121
2.157011 0.30977112 0.40832275 0.73804766
0.3467117 0.72209728 0.40585443 0.92742246
2.8842187 0.95093018 0.48983288 0.36100808
2.7596059 0.90150261 0.47539923 -0.35387528
1.4601992 0.75539446 0.040936738 0.94716352
2.5299351 0.66600543 0.12322229 -0.43525204
0.15719771 0.75684631 0.40600285 0.21242504
2.576684 0.31680155 0.32638398 -0.26630506
1.8797179 0.46941343 0.24529044 0.22642964
0.57453215 0.30228975 0.35897535 0.45875084
0.75965971 0.69761646 0.46995983 0.51926565
1.7973572 0.8907181 0.36089841 0.25755635
1.9383377 0.80367029 0.20078665 -0.53172731
1.4090272 0.64801788 0.0055034398 -0.43377507
1.2145926 0.82301253 0.29644167 0.79127651
0.41944227 0.24565126 0.42082858 0.29916024
2.1451941 0.33223802 0.25426498 0.7197262
1.9035833 0.22648065 0.02974618 0.663243
2.7722914 0.999412 0.030418117 -0.4303515
2.6703904 0.78263301 0.30453414 -0.39127204
1.7589099 0.010641579 0.01283344 0.16793717
1.9759784 0.036673758 0.28902701 0.19057097
2.5790589 0.17093736 0.16364124 0.99850118
1.2497659 0.16893965 0.38294357 0.39495996
1.503533 0.2744171 0.019114364 0.40711638
1.5026933 0.097721092 0.011726568 -0.7250154
0.2913993 0.084289365 0.47410551 0.96178961
2.6007671 0.55727935 0.26175293 -0.64032286
1.7037628 0.54917276 0.25460237 0.67974108
1.7575395 0.087258808 0.145052 -0.6634016
0.77458853 0.61738652 0.2225166 0.024354402
2.3589785 0.21092035 0.40321907 0.86251158
1.4560124 0.84466684 0.21160465 0.9587056
2.8271639 0.44666246 0.20561504 0.11856312
1.5928555 0.3594411 0.013392123 -0.80637735
2.7501614 0.55029011 0.42554998 -0.54607594
0.29838851 0.36030471 0.35561085 0.055927988
1.3426906 0.001325727 0.065421067 0.11727908
1.8561367 0.57587534 0.19027224 -0.78488475
2.3603871 0.18698262 0.34627113 0.81639934
0.094948396 0.11575159 0.12918416 0.92211223
1.6872422 0.6695984 0.0067792246 0.28009757
0.087118529 0.040342696 0.24562004 0.83727986
1.7718984 0.34234002 0.21520066 0.070286907
2.1079342 0.14162302 0.18770248 0.45062473
0.42884627 0.5062471 0.42798397 0.28498298
0.24636728 0.23651244 0.083349705 0.6067543
1.2704852 0.85924166 0.070525609 -0.63456649
2.9249797 0.39941955 0.21459095 -0.38777813
0.20705381 0.44274035 0.31538656 0.29417235
1.4492491 0.12201323 0.021908702 0.22114758
1.3930597 0.47421873 0.38190573 0.50099391
1.8475252 0.13921645 0.15860312 0.27637148
1.9363906 0.17317416 0.26022574 0.18275794
1.2290598 0.6871509 0.29825205 0.49954492
1.6391777 0.73755533 0.14416307 -0.43584257
0.41092455 0.71750808 0.029396551 0.61797839
0.48074529 0.68956625 0.15202512 -0.070005544
2.4347384 0.34786764 0.35852367 0.82779819
2.466259 0.48085883 0.22146535 -0.6862157
1.8602259 0.7601369 0.098359294 0.79661655
2.7999332 0.71717006 0.49656242 -0.97100699
1.2129629 0.58962893 0.08808966 0.85214061
0.98155266 0.46450546 0.23604967 -0.60752279
0.54604053 0.53089243 0.33507594 -0.97321415
0.66137606 0.9742021 0.49279672 0.096114509
0.96620923 0.70264077 0.15398544 0.43246832
0.55049884 0.75090158 0.29104212 0.41072476
1.5331156 0.77880281 0.034556888 -0.66695118
1.4879186 0.062238611 0.39367366 0.70088154
1.9556026 0.96352661 0.4255037 0.93715525
1.2840961 0.32310671 0.22160542 -0.16986327
2.5619974 0.1133627 0.47615376 0.22337353
0.26269442 0.93790096 0.053248007 -0.77109635
1.9216251 0.41446692 0.27689534 0.47212401
0.49610552 0.13587487 0.31380814 0.029221084
2.7440331 0.69673002 0.060378317 -0.76804829
2.276906 0.90810394 0.1554722 -0.76749146
2.6148915 0.1619518 0.19494396 0.89898777
1.4551755 0.83309877 0.45485407 -0.98282701
2.8393843 0.86201566 0.20675775 0.1020788
2.39975 0.52001154 0.22183041 -0.67862493
2.8034353 0.99745148 0.13224985 0.29954082
0.39997905 0.89211595 0.388127 0.14401206
1.7665379 0.89701062 0.22932729 -0.95655614
2.4153435 0.76959902 0.37932539 0.030235168
2.7946525 0.14853872 0.48820382 -0.75017208
2.9449124 0.88611579 0.37783349 0.78429681
2.2443945 0.16918249 0.48106259 -0.35585567
2.0675821 0.40578604 0.49425322 -0.1289826
1.2097125 0.25300616 0.36175969 -0.39030844
0.4353663 0.49977338 0.29228392 0.20190425
1.190352 0.043222457 0.040891349 0.60569555
2.4384644 0.84043348 0.43932179 0.23311678
2.9669166 0.85505122 0.080490783 0.91182905
2.223501 0.91664857 0.44935432 -0.53210449
0.25749317 0.86083382 0.018673299 0.32507527
0.79985958 0.025853058 0.19934878 0.0095721148
0.83657765 0.12221696 0.10321061 -0.72805607
1.865971 0.7909891 0.078974694 0.056322988
2.5026348 0.23973209 0.11033642 -0.058900978
0.24049677 0.099316426 0.19570263 0.20741341
2.8631029 0.55238682 0.019873748 0.086603954
1.4071062 0.93845612 0.09241657 -0.33540067
2.3978698 0.22217974 0.16494577 0.19772954
0.74409842 0.72858906 0.36788362 -0.41932398
2.5524182 0.94218844 0.47543666 -0.58161086
2.1995325 0.10882271 0.24578536 -0.29783276
1.0456644 0.71224356 0.10721105 -0.71383882
2.43468 0.60582733 0.2489291 0.29778287
0.47464257 0.5376057 0.23073114 -0.11825126
1.4281855 0.64629543 0.091058016 0.82605541
2.6054256 0.51200753 0.17063083 0.3495239
0.7217899 0.077028871 0.32169998 0.27420804
0.057651937 0.59427327 0.28209952 0.25718454
2.109288 0.055769771 0.15989196 0.15495245
2.30404 0.53420603 0.2401856 -0.26128006
0.42010012 0.9782294 0.17275047 0.89474273
1.5475053 0.80696321 0.46274859 0.97569078
1.3597759 0.10761318 0.13362436 0.96520138
1.8588622 0.60851038 0.21912089 0.58065212
2.0566177 0.081641741 0.47581002 0.11426968
2.027745 0.51581907 0.22857571 -0.86296684
1.7147666 0.77693534 0.21533093 -0.98119342
0.93342406 0.91103309 0.45958775 -0.64647579
2.6677876 0.26467645 0.37471116 -0.78470725
0.21491903 0.67491943 0.19849727 -0.42530507
2.3475978 0.66424322 0.42331606 -0.79353994
0.81826085 0.28487387 0.13118535 0.87487859
1.0995469 0.21399076 0.3315247 0.12729199
2.1894295 0.12020084 0.21072085 0.9041962
2.6914084 0.85210359 0.32050046 0.62483257
2.2894101 0.56017643 0.32972613 -0.042802505
2.4745588 0.40887457 0.028748378 0.68947774
0.25138208 0.45449129 0.21069545 0.59897995
0.35620356 0.26802301 0.13424 -0.8255356
1.6586907 0.53085071 0.1748905 0.75823754
2.2345245 0.012830433 0.4809216 -0.57604599
0.39909381 0.3832849 0.38802505 0.090502314
0.70616543 0.41705099 0.11922248 0.99557543
2.9316823 0.89789724 0.32546216 0.40624106
0.92031544 0.70842105 0.34928647 -0.82830244
0.48873705 0.11996383 0.12844625 0.8449406
1.1639606 0.52537251 0.33656749 0.82265121
0.16866972 0.02291601 0.43014812 0.40319419
0.10723933 0.82213938 0.13785803 0.50633311
0.61627293 0.051766135 0.099472575 -0.6775617
1.4064513 0.43739012 0.21966895 -0.66186625
1.0058621 0.090262234 0.12406246 -0.073822476
2.39605 0.94669789 0.016312508 0.88478696
0.1999851 0.28951752 0.12162126 -0.6360544
2.44467 0.91637754 0.19776614 0.61333978
2.8178806 0.2558285 0.33608899 0.92511994
0.23390375 0.94789404 0.071908846 0.85017663
2.9989805 0.34276283 0.36210251 -0.59456801
2.3404589 0.16354291 0.45726094 0.34632096
0.76141548 0.16264683 0.37874976 0.15746538
0.3280341 0.79012454 0.0070420597 0.52801919
0.23892608 0.25732663 0.31532747 0.68359613
0.5211125 0.026187215 0.38282266 0.3389931
0.84604716 0.4378233 0.044018839 -0.92004907
1.1571521 0.23185536 0.32168794 -0.8438673
1.7238547 0.36758083 0.42692745 -0.93568653
1.5933713 0.76837677 0.23510574 0.35478675
2.7930708 0.22771098 0.41870868 0.12110496
0.053506464 0.85150152 0.10818736 0.29243255
0.32648441 0.84702969 0.49600479 0.84759688
2.6196506 0.75765491 0.19776501 0.4656978
0.5864346 0.48356768 0.25760812 -0.25641331
2.1462691 0.15859209 0.48328656 0.8701238
1.5785189 0.82042801 0.3224062 0.17189009
1.7664144 0.11502391 0.42111281 -0.44051477
1.0282047 0.67964298 0.28009838 -0.91828889
1.5934335 0.77657145 0.22902395 -0.080082111
1.8708034 0.45005745 0.46125248 -0.50954604
0.623137 0.31803495 0.32602531 -0.7904284
2.4048078 0.16726683 0.49219304 -0.44892296
0.97757679 0.95095921 0.40353346 0.5560956
2.3141618 0.45187935 0.45466429 -0.91942394
1.7007098 0.75155419 0.44001022 0.72891444
1.2935915 0.44021717 0.13510427 0.887025
0.65036583 0.7282564 0.30115715 0.52116919
0.53494161 0.5248192 0.16860387 -0.84192133
2.5285625 0.98925835 0.39460838 -0.066629641
0.46957546 0.77360284 0.080741234 -0.55284774
2.1736863 0.96854937 0.16720797 -0.51215214
1.2612863 0.24374451 0.42807066 0.96199608
2.9858961 0.73616171 0.44848508 -0.72051245
0.52913672 0.16717871 0.19441876 -0.82049745
2.6863053 0.99115181 0.11677862 0.221247
1.5479131 0.57076496 0.2298876 -0.92352444
1.6800698 0.24899197 0.0016409864 0.14964531
0.067784451 0.16476443 0.099466257 0.24147065
0.3999415 0.53334844 0.12155309 -0.33877224
2.3312788 0.099247485 0.27053732 0.31717488
2.5062277 0.43804479 0.099443741 0.035364352
1.8156705 0.58772498 0.20247781 -0.49802417
1.7366303 0.63851285 0.28720382 0.28454342
0.62783349 0.034182828 0.2268365 0.30790335
0.84952438 0.45695496 0.24292478 0.91730887
1.8651582 0.68478209 0.02646325 0.26509967
0.65439153 0.29603267 0.15438791 0.98567039
1.1858405 0.84985042 0.38380754 0.69206816
0.86368561 0.96650255 0.12123875 0.67935604
1.6626827 0.6474331 0.19688866 0.39931303
0.85783798 0.96818489 0.11397608 -0.51432854
0.0071032047 0.68162513 0.13226247 0.85662758
0.41574031 0.7503745 0.29565609 0.28089851
1.3054696 0.64423865 0.25766638 -0.040138781
2.8208139 0.82410854 0.32425526 -0.99334556
2.0218768 0.41612566 0.28312042 0.88556248
1.1478846 0.80871832 0.42748642 0.81056738
1.3684545 0.24875015 0.034980062 0.22629237
0.65080518 0.29791227 0.11866064 0.65790838
2.9386122 0.50184619 0.25242266 0.35435259
0.75666213 0.096157469 0.43920851 0.062131777
2.2211883 0.39374977 0.17033216 0.042002283
0.65357494 0.9891749 0.0081094522 0.67545187
1.2159016 0.58245975 0.42683572 0.36378622
1.1735343 0.70864433 0.36239228 0.54198873
2.8721833 0.79474467 0.29471353 0.5229885
0.27797079 0.82674831 0.19681615 0.21658306
0.98578358 0.89847761 0.095155939 -0.25755429
2.9839053 0.068728909 0.13409625 0.20509356
1.387436 0.6088568 0.20784931 0.041011002
1.7940952 0.43191752 0.28607714 0.0099966694
0.043131832 0.42582574 0.39563048 -0.78333384
0.40341011 0.51604551 0.12644248 0.27559346
0.93237042 0.84231198 0.13309699 -0.78965878
2.0071809 0.65982628 0.23782071 0.99296451
1.6749117 0.66595328 0.28923503 -0.3411831
2.2040467 0.84666258 0.14398508 0.5914827
1.3665582 0.70366877 0.43874896 0.16065328
0.40675887 0.44965219 0.028441656 0.4498907
2.6264338 0.84814429 0.27775949 0.029843908
1.0925694 0.80840391 0.05090623 0.024939761
1.9521477 0.36800644 0.039213501 0.95932865
0.083498187 0.55406845 0.15871553 -0.24159014
0.66006523 0.89590114 0.069537796 0.8641119
2.2276912 0.42704576 0.075932428 0.59424925
0.39214358 0.029362764 0.12581709 0.79890245
1.4370449 0.30851749 0.20813219 -0.93652135
0.46998531 0.97178334 0.18222043 -0.43744537
2.3405619 0.46625331 0.097915731 -0.70729047
2.5027792 0.27425846 0.37533969 0.58627748
2.4849806 0.068110444 0.22411455 0.14504588
2.8920348 0.58730471 0.0015262901 0.11972579
0.043051351 0.15491743 0.45232916 0.43519491
0.55284059 0.15629251 0.20568289 -0.010114525
1.39443 0.82763016 0.0088940216 -0.13558468
2.3982406 0.38222891 0.071161658 -0.26119766
2.5454466 0.33815476 0.0052519729 0.048225898
1.8372397 0.76118332 0.27241722 -0.67777961
2.4878814 0.99306357 0.24454437 0.37991604
1.7411048 0.49214134 0.24994031 -0.21584386
1.9411763 0.40453896 0.36989185 0.49401692
1.6824944 0.15114948 0.24731706 0.076924443
2.9363389 0.51242214 0.32355663 0.3345795
2.6839533 0.78943658 0.17889698 0.22939983
0.38277403 0.3682979 0.21293762 0.22001374
0.38844368 0.97070968 0.090372354 0.87632501
2.8913198 0.66983342 0.37604019 -0.36757544
0.48592433 0.25196096 0.069430113 0.42710063
1.9694998 0.87864393 0.32018626 0.65199423
0.089380175 0.13500664 0.12148644 0.02571913
1.9422865 0.89008611 0.39338312 -0.37376034
2.038568 0.14456016 0.14260657 0.42134216
1.5385741 0.71108842 0.2735593 -0.07298217
2.0453942 0.72786331 0.30055714 -0.063285954
1.1930903 0.35319462 0.094856434 -0.32098535
1.8154668 0.32857311 0.18435255 0.78496659
0.62165105 0.0090776058 0.23949347 0.7110312
0.43225273 0.72195983 0.12279173 0.37453917
1.8361379 0.032349668 0.16679648 0.87470603
0.53072947 0.61880612 0.049341362 0.069303632
0.98968351 0.64580137 0.16605358 0.035077766
1.1209941 0.93322146 0.32863197 0.31408438
0.85924822 0.84697682 0.16551651 0.67471504
0.52664971 0.69973809 0.076613605 -0.85169923
2.1264472 0.63221413 0.30988866 0.55869991
1.0625219 0.8653608 0.3222065 0.89865977
2.6931314 0.97800595 0.1288943 0.22386083
1.7904361 0.35647133 0.38219407 0.78011966
0.0068180258 0.096495308 0.46919957 -0.87218791
0.089150228 0.59566307 0.073649414 0.94839847
1.3279197 0.47833183 0.10385224 -0.14543062
0.53420985 0.36093169 0.00047835638 0.66065699
2.9794376 0.62073404 0.36989281 -0.9580406
1.4582845 0.38419864 0.15676987 -0.84858418
1.0866139 0.57132834 0.22921278 0.87705004
2.7833989 0.2228137 0.44286162 0.79021698
0.95792705 0.82412237 0.15300484 -0.95292276
1.2593564 0.45330852 0.33257928 0.5872761
2.7949212 0.87286305 0.24030758 0.32913089
0.70138425 0.48157188 0.49829799 0.68082172
0.30691773 0.73638159 0.28713018 -0.23479779
0.36174071 0.8878001 0.486103 -0.55164546
1.3773854 0.43063155 0.22090077 -0.8392157
1.9603357 0.32752478 0.15850021 0.91826278
0.45494148 0.6230101 0.16089001 -0.28570211
0.22895585 0.9869386 0.21692899 0.023876898
2.5794048 0.91447318 0.058834631 0.28078914
1.188135 0.11426523 0.16026847 -0.50494719
2.5519404 0.89479733 0.043375831 0.91368115
2.3477924 0.058957674 0.22700596 0.72517765
1.4687676 0.89581347 0.314327 0.42910343
0.67001462 0.94565439 0.057894371 -0.87504387
1.7059935 0.43756875 0.47320899 -0.065050624
1.273522 0.38027599 0.32647106 0.85292691
0.88424742 0.77061135 0.18895267 0.072382487
2.6546297 0.69844228 0.094572544 0.20657019
1.7797189 0.27589676 0.35337523 -0.8724888
1.0045633 0.16076237 0.30878147 0.47333097
0.16972744 0.24621695 0.48373908 0.83974206
0.57561404 0.083266892 0.32744971 0.28160757
1.5625069 0.60131741 0.20275949 0.83602893
2.9447801 0.058461078 0.11482597 0.82902765
2.4872172 0.6075573 0.48356834 0.14184704
0.91799873 0.1562818 0.22473621 0.69771761
1.2965356 0.15622286 0.13753814 0.30109897
0.95095569 0.89263922 0.29573831 -0.87931687
0.41656858 0.55895478 0.32673755 0.99218261
1.9266651 0.30837449 0.045631703 0.48917198
2.7290757 0.49678239 0.054200154 0.67385584
1.6657304 0.33805224 0.083813913 -0.84705228
2.8368287 0.13476452 0.049132459 0.75482732
0.87313896 0.5477373 0.075424157 0.16967465
2.1118805 0.4259246 0.24512893 0.062836312
0.95569158 0.081734516 0.19725324 -0.62773985
1.9220679 0.047981564 0.39407378 0.84873295
1.0690682 0.87941098 0.22298416 0.7981438
1.1285802 0.55436862 0.078666605 0.79431057
2.6772625 0.32496104 0.15787637 0.51409125
1.3791767 0.41401768 0.044819769 0.25231567
2.8852649 0.24048786 0.23699838 -0.0028544143
1.9992374 0.96425462 0.34333032 0.95492893
0.13796747 0.081167117 0.22119817 0.060035396
0.38744605 0.23054394 0.48479474 -0.54348582
0.32986483 0.41555777 0.37577632 -0.54155499
2.9097793 0.9088859 0.2087926 0.58704185
0.70154071 0.73333794 0.35018885 0.080717385
0.44206682 0.79001725 0.22217217 0.32733178
0.091515288 0.9183411 0.38741291 0.090752646
2.6477873 0.46148643 0.34094691 0.78575468
1.6279607 0.12429021 0.30763167 0.015406677
1.0645025 0.58485281 0.078653477 -0.60563272
0.0012318031 0.90885961 0.47546872 0.91101104
2.4532363 0.36852261 0.41634214 0.15477714
0.30558166 0.53306198 0.37258241 0.74764848
0.96923774 0.18950918 0.17916338 -0.93924701
0.32355091 0.13315254 0.025250943 0.97133815
1.783917 0.73239577 0.45951548 0.41187754
2.5700579 0.53429431 0.40454736 0.63456035
0.35744143 0.9664017 0.33815461 0.35867324
2.6257839 0.62724662 0.044947375 0.079020351
2.9873078 0.92257905 0.37229958 0.29288945
1.3669231 0.489764 0.17342299 0.33616087
2.0378196 0.70517272 0.066152319 0.36137044
2.5149758 0.18280652 0.38878477 -0.70110726
2.7456069 0.6966005 0.28512838 0.31566465
0.69268441 0.3793515 0.49170417 -0.94987416
1.0372596 0.65971756 0.23479985 0.6630435
0.86089253 0.55949444 0.45701063 0.84820032
1.4462205 0.65862042 0.19018163 0.81314361
0.44515333 0.72720921 0.35821742 0.48297286
1.2971458 0.84873945 0.30739054 0.81212169
0.094637953 0.39235064 0.35183573 0.84024477
0.26685339 0.27392823 0.35931823 0.9595378
1.9598392 0.70204479 0.33494395 0.99709874
1.085287 0.13948758 0.11002371 -0.053820487
2.096946 0.13406868 0.46572998 0.54316652
2.3780673 0.31182322 0.059385028 0.82322067
0.11709733 0.8352049 0.38436559 -0.58575678
2.0518332 0.38351229 0.37106082 0.14647102
2.3275888 0.44579309 0.3311193 0.59444219
2.159164 0.38087505 0.092330001 -0.88099682
0.24875952 0.85454786 0.18601699 -0.66595352
2.9821064 0.59208137 0.046704333 0.079052433
2.1784501 0.024868617 0.43703648 -0.44348243
1.0100754 0.99284303 0.22995637 -0.87282717
2.4841437 0.22864394 0.42356932 -0.46402308
1.8364687 0.58926028 0.11374132 -0.83594245
0.10516022 0.88972121 0.12641662 0.26432422
0.81178886 0.43749323 0.063887894 -0.93945158
0.87612337 0.49980977 0.39909914 0.85822976
0.27567342 0.89160699 0.48954701 0.45412362
2.7494268 0.85316706 0.16844019 0.75950223
2.5380304 0.79679316 0.31444585 0.022174131
0.07631126 0.47603035 0.09302517 -0.087220028
0.19587198 0.413533 0.012806251 0.30103219
0.90976268 0.27844575 0.42755941 -0.27844843
2.1478169 0.9828946 0.46368334 0.023940343
1.4481131 0.72556496 0.14702834 -0.2762135
1.8515158 0.27315074 0.19631836 -0.39905751
0.3789534 0.7295171 0.39340746 0.91698366
1.5789307 0.4157066 0.32319298 -0.34475797
2.675211 0.83243626 0.094670333 0.87108284
0.73790783 0.21495317 0.028685834 -0.35232949
1.4801967 0.91249049 0.061537012 0.62801373
2.6861553 0.050440677 0.10865901 -0.86573172
2.3280168 0.51137471 0.47634247 -0.82046735
2.3535764 0.34532166 0.46341252 0.73252976
0.22451627 0.71363997 0.44158557 -0.19655296
0.38803962 0.52955711 0.07644818 0.063250475
1.0859802 0.34223703 0.48905554 -0.176112
1.6715705 0.035482764 0.07859309 0.15176733
2.8439198 0.28026021 0.1299635 0.53007489
0.99210262 0.47724503 0.11072387 0.3201195
2.9658592 0.17413266 0.24994202 0.31943563
1.558363 0.42670909 0.34199423 -0.2171208
0.42104709 0.56715965 0.09772104 0.80908674
0.2901502 0.34833843 0.14538953 -0.62386966
2.0717263 0.26889014 0.033336394 0.74329698
0.91311878 0.22385897 0.14917739 0.75703847
1.5123575 0.55828178 0.047852229 0.5044601
0.10658044 0.3171522 0.47076327 0.072439693
1.4738545 0.44141057 0.39864588 0.032217506
2.6043589 0.48128024 0.30251613 0.025406048
0.14531964 0.80047435 0.13908213 0.43546984
0.44643828 0.56894332 0.30193338 0.51816469
2.5135005 0.6705395 0.043576941 0.42661917
2.6831956 0.38550866 0.19727628 -0.80444705
2.8313713 0.49025702 0.11666885 0.93795174
2.4222276 0.17486423 0.0017319035 0.89608216
1.8488244 0.80075556 0.15471661 -0.54681659
0.84610748 0.91446549 0.24643157 0.99142718
2.1448193 0.77102739 0.23781617 0.59125763
1.0199121 0.079499073 0.35157037 0.53341258
2.2501159 0.79029465 0.16000529 -0.066688716
0.52740985 0.71456313 0.021477375 0.35878116
0.61446047 0.27629244 0.049455483 0.036688052
1.3534701 0.10237477 0.1554617 0.20229445
2.7093911 0.62035662 0.27591297 0.55549854
1.6044663 0.044689097 0.25782096 0.7492857
2.4471495 0.99127424 0.056757215 0.46706164
0.21231994 0.81665522 0.16674571 0.46243575
1.8208495 0.65350199 0.2326245 0.34825942
1.1041954 0.50820374 0.45117342 -0.28134421
2.3534887 0.0012578205 0.2925573 0.70695865
0.31089777 0.89603806 0.15154219 0.020288836
1.549184 0.85491031 0.095964566 0.15365033
2.6987982 0.70757103 0.15048933 0.14594771
2.0965359 0.41449311 0.43550155 0.3088558
0.69344491 0.20449452 0.29521525 0.51429445
2.5739894 0.05567953 0.31042564 0.67818487
1.6916499 0.52319813 0.39947346 -0.95486152
1.5733678 0.38406152 0.29201618 -0.11573435
0.84029865 0.88711673 0.31742576 0.38948268
2.2260811 0.82678062 0.42385551 -0.075120628
1.603055 0.14868967 0.17847118 0.69959086
1.6895483 0.22794548 0.0014077825 0.38299319
1.29732 0.5932461 0.31621459 0.87130952
1.9467769 0.25328049 0.25824907 0.63842672
2.3294358 0.31544501 0.2805942 0.90280378
2.0985196 0.14522077 0.46451157 0.93881828
0.09701252 0.5638746 0.38805014 0.32309368
1.1719658 0.6238113 0.2079955 0.77502084
2.317503 0.77293336 0.07910195 -0.99294877
0.0026365682 0.16101946 0.065007403 -0.70004344
2.2627966 0.76244402 0.36187768 -0.79042649
0.04717353 0.24025348 0.30800003 0.37660941
1.6670954 0.17718846 0.046568859 0.76561511
0.9672277 0.022160858 0.11740556 -0.93575978
1.7581065 0.010911424 0.064555645 0.93007225
1.9041682 0.5451023 0.45084885 -0.7783289
0.95410705 0.059901584 0.37145373 0.95674366
0.66276318 0.87292224 0.37611669 0.92555982
1.9060988 0.47598875 0.18918888 -0.046727624
2.1487267 0.99437785 0.22164696 0.81582212
0.51469886 0.53643167 0.26357287 -0.5180735
1.6757776 0.76195687 0.42436111 0.43388399
2.3186049 0.97783351 0.060659371 -0.77722698
1.5688075 0.023016429 0.40740737 0.52291459
0.24875404 0.55772215 0.079943039 0.9115172
1.2919333 0.91211945 0.13951284 0.19803214
1.1643246 0.65740341 0.35855076 0.31305131
1.9553437 0.16039543 0.18814558 0.47004259
2.0904813 0.9034369 0.15866151 0.76625878
1.9961812 0.16604528 0.2000238 -0.68521392
0.43163645 0.52136636 0.42292652 0.00044399733
1.6331483 0.66066778 0.25389311 -0.11809767
0.65516979 0.66767228 0.46556991 -0.052896932
1.7393752 0.2101655 0.35752255 0.90369993
2.6027067 0.43214658 0.036125205 -0.44194949
1.777626 0.44854155 0.17134885 0.86810732
1.0559354 0.66002077 0.27239436 0.052116588
2.4781981 0.94483626 0.2278171 0.90983456
1.3986079 0.30148727 0.31837976 0.031756133
2.8864651 0.14454572 0.31894308 0.5416348
2.4366541 0.56902599 0.41478965 -0.82397074
2.3375745 0.54462439 0.17995487 -0.059718721
2.9303129 0.43216014 0.083055303 -0.29206115
2.6421051 0.50880831 0.42934102 0.69804049
0.50648713 0.40347075 0.12502618 0.98468524
1.044921 0.70568657 0.48241997 0.44352895
0.021521501 0.60159945 0.4125475 0.90798652
2.2384355 0.46298116 0.074936889 -0.32491055
0.096021511 0.97945309 0.47518647 0.43359601
1.5722322 0.31028265 0.22897954 -0.49745491
2.2273283 0.62406969 0.03508066 -0.13056654
0.39863402 0.92884338 0.42791232 0.90512121
0.99694234 0.105877 0.14830106 0.041863449
2.4346907 0.26144207 0.2475654 0.45621222
2.5891244 0.32022581 0.39403313 -0.17243998
2.3496211 0.93794006 0.083774909 0.4456425
2.7521794 0.11792273 0.3132064 -0.67558843
1.2846161 0.084371932 0.47115946 0.51194441
2.125325 0.012480214 0.3968963 0.52395892
2.8239708 0.64961725 0.071513347 0.82091314
2.2664828 0.43962884 0.47712943 -0.29882643
2.1032128 0.44938964 0.19289763 -0.30766273
2.3088465 0.17386153 0.086649545 -0.34153262
0.33540469 0.34084892 0.18401831 0.087583981
1.376315 0.9944495 0.23533259 0.66093105
0.2364642 0.41298407 0.028812585 0.36178911
1.2763929 0.85141778 0.31429133 -0.89963633
1.5031053 0.77160937 0.32021278 0.76958811
0.63371462 0.59468442 0.41179362 0.73692739
0.13222229 0.20938249 0.23821077 0.44106871
1.1497321 0.64972067 0.18325602 -0.51486325
2.9717088 0.73454869 0.26212013 -0.65197635
2.1869943 0.99490541 0.16815913 0.42345858
1.2236686 0.3939434 0.29754129 0.50006145
0.73608363 0.22366524 0.10007085 0.23918889
2.9858239 0.84056729 0.0014628319 0.61953843
1.3057553 0.82651287 0.059410967 -0.56202251
0.10768615 0.59524345 0.1465077 -0.74258178
0.73489237 0.65952742 0.45709249 0.70660108
1.1822282 0.43842524 0.34243745 0.36922264
1.299992 0.021193149 0.46544686 0.52366054
1.2454097 0.5259763 0.33728701 -0.018506661
2.2489245 0.87471569 0.20344704 0.23474842
2.145849 0.40981975 0.47571447 0.45160419
0.70899791 0.070250891 0.31493029 0.81668407
1.9964831 0.92287594 0.34568369 0.73137552
1.7472101 0.60555243 0.072996095 0.92943841
0.13193291 0.83086711 0.049776845 -0.56807506
2.5561807 0.030447436 0.15926425 0.80159038
1.6692712 0.99310249 0.46384728 0.91819584
2.6034546 0.33458865 0.025490709 -0.25069642
2.2332251 0.0024103741 0.36681795 0.94222313
0.2179838 0.36349648 0.12648453 0.21446691
0.85911733 0.94433647 0.32430705 0.60632747
1.6496667 0.79460633 0.42262766 -0.21840046
1.8764203 0.94480896 0.035587411 -0.56739908
2.9257693 0.38970333 0.37236524 -0.4049595
1.1484175 0.67242503 0.41887271 0.75187206
0.021041054 0.88872689 0.41686261 0.25426626
2.6734116 0.56736112 0.36608157 0.89139551
2.7925727 0.98513216 0.35097706 0.65169019
2.7884059 0.35056826 0.043002941 -0.56192744
0.43552378 0.93126118 0.036612011 0.31194398
2.6282105 0.14439885 0.12409082 0.55397981
1.6023065 0.99291205 0.19150338 0.75072396
1.9960113 0.22075221 0.083765998 0.017052369
0.32843721 0.0012572138 0.21188644 0.0018489417
1.705855 0.155936 0.48220742 -0.50157213
0.42320454 0.66636896 0.35835302 0.21161045
0.050811712 0.8027119 0.27494717 0.48633549
2.2019193 0.62311834 0.46637991 -0.16987024
2.3025515 0.18094146 0.23068492 0.90485811
0.52156061 0.84437662 0.10926367 0.51757193
0.19538647 0.38605934 0.25577071 0.52382368
1.1619498 0.9353143 0.087612107 0.86780477
0.27375096 0.13963903 0.22770543 0.6969555
2.4180241 0.17211691 0.15142766 0.46883568
2.9244864 0.85274965 0.49252853 0.12640567
1.427604 0.91781688 0.15942258 0.73015559
0.29627502 0.78021497 0.27250227 0.81783563
1.8737748 0.76353192 0.055901267 0.069161281
0.44877383 0.62334394 0.43216416 -0.38927647
1.6759748 0.039552532 0.24642138 -0.050274171
0.53757471 0.94825363 0.44111356 0.95559865
0.36111164 0.18508242 0.4040724 0.28559807
0.11349621 0.79320186 0.40200064 -0.4588998
2.1330562 0.12284639 0.37854263 0.42933118
2.7091842 0.30208984 0.041194472 -0.41704103
0.19686529 0.19419147 0.10868671 0.64563912
2.4526064 0.081701741 0.37606046 -0.87141877
0.36376283 0.24496365 0.013051174 0.9013375
0.57965189 0.90832943 0.1428227 0.94076353
0.28023565 0.093790166 0.2043936 0.39373186
2.6609759 0.21278845 0.32247201 -0.20596784
1.0069045 0.40202928 0.20389389 0.71608865
2.1123574 0.49017671 0.3831746 0.30922267
2.0531046 0.98372263 0.49247697 -0.49428907
0.1962731 0.73707485 0.43904871 0.56003594
2.9461155 0.90419972 0.24356224 0.52576733
2.4375875 0.77276987 0.24442181 0.71782321
2.5996799 0.89763081 0.01859251 0.26065606
0.33125779 0.68212903 0.17578137 -0.6618377
0.25247499 0.75935054 0.34237516 0.36483237
0.74858171 0.45109954 0.27900916 0.80168629
1.3044665 0.54297227 0.21789955 -0.4992604
0.8401413 0.31389648 0.34346259 0.78625673
0.65428859 0.17404965 0.21867068 0.091876164
2.8404584 0.92618495 0.46828324 0.44013858
2.4714472 0.97375149 0.28346577 0.80270511
1.9676416 0.91849428 0.19014457 0.22011654
2.0335343 0.065039456 0.26415816 0.78211612
1.548417 0.086334653 0.43063372 0.85288346
1.8879209 0.29706654 0.22560385 0.72806215
1.8328891 0.13813286 0.085719809 0.48717764
0.93654752 0.60878098 0.42984229 0.77700603
1.6048979 0.79625106 0.036190763 -0.92365485
2.3100076 0.63931304 0.14650837 -0.72235084
1.6734221 0.67330587 0.082960956 0.70695645
2.2150359 0.69423825 0.081512086 0.76345301
2.3417187 0.024291638 0.10272274 -0.77036059
0.96407455 0.65665317 0.15961693 0.79696357
2.3843582 0.49067348 0.38069022 0.3209056
0.29836336 0.62106502 0.18298526 -0.096738853
1.2519482 0.43835205 0.49660105 0.56195587
0.23299539 0.28621882 0.30660084 -0.093582556
2.8785741 0.7791236 0.43556231 0.093610182
1.4200854 0.034148805 0.47617719 0.76180404
0.17532133 0.15779988 0.33190724 -0.86060411
2.4433591 0.98304838 0.15605992 -0.17228277
1.4211655 0.073500238 0.35810381 -0.28047118
2.0836957 0.082178146 0.10379833 0.33564401
1.5615907 0.20079875 0.14959997 -0.20541398
1.4610528 0.91240162 0.11683391 -0.66037309
2.0745757 0.10479245 0.072206184 0.49466112
0.41682374 0.096766762 0.20941086 0.59214509
0.76369989 0.08263623 0.28859016 0.20705907
0.19705375 0.88930017 0.33912939 -0.38178077
2.8884013 0.39446637 0.056291346 -0.027903063
1.4299335 0.32017934 0.3846235 0.99152422
1.5629343 0.068446934 0.29768503 0.023987079
2.9425457 0.8290379 0.22726899 0.017121406
2.801491 0.59895039 0.41863042 0.21831478
2.0871513 0.25608256 0.13507664 0.8508513
1.0161564 0.84733361 0.0096517298 -0.78678983
2.2099013 0.69756222 0.4719049 0.098302469
0.27608582 0.056392483 0.17839991 -0.29398063
1.1297156 0.12604678 0.28292394 0.69264984
0.58348113 0.16121793 0.45277283 0.52602684
2.9707675 0.36008364 0.42385805 0.77225852
2.8771021 0.68497694 0.49842888 -0.035746578
2.8231785 0.26701105 0.30251744 0.83933496
0.343034 0.62433839 0.34209085 0.5529353
0.96570182 0.6279915 0.2752063 -0.75821239
2.0531518 0.90721238 0.49130118 0.18286747
0.099777527 0.54845017 0.47925287 0.68325865
2.1290042 0.8640514 0.20154759 0.09977182
0.67240506 0.25081125 0.31200504 0.54950714
2.8073645 0.62086785 0.41896009 0.63054311
2.6636367 0.44295508 0.078313015 0.0066707558
0.20188038 0.84080774 0.42660102 -0.83241779
1.4063977 0.40361461 0.40156165 0.45954964
