# .PCD v0.7 - Point Cloud Data file format
VERSION 0.7
FIELDS x y z intensity
SIZE 4 4 4 4
TYPE F F F F
COUNT 1 1 1 1
WIDTH 1109
HEIGHT 1
VIEWPOINT 0 0 0 1 0 0 0
POINTS 1109
DATA ascii
1.7086736 1.9185468 0.35409415 0.076115087
1.5684884 1.7079066 0.4882057 0.052046079
1.1280832 2.7699094 0.32829794 0.0021956705
0.98373228 1.4306947 0.49624708 0.23496328
1.0111428 1.0163037 0.37973636 0.29414645
0.34390292 0.44260851 0.37656698 0.45812356
0.062253613 1.8254404 0.064461343 0.2318446
0.89077288 1.0162003 0.33271918 0.1390391
0.071106739 0.86368859 0.21515419 0.45968112
0.64440572 1.5071887 0.011727193 0.11456034
-0.09757933 1.3450252 0.11675601 0.35732666
1.7297564 2.209188 0.092289932 0.1841093
-0.18295372 1.8196843 0.47825575 0.20303324
1.5995485 3.1049337 0.16115679 0.14849378
0.82817966 1.7853963 0.38033837 0.49022153
0.78133518 1.6852618 0.12926064 0.33421278
1.2094324 2.6706607 0.2938939 0.11954542
-0.22952248 1.0671179 0.23410577 0.13811678
0.12173114 1.6103115 0.49544343 0.091021411
1.8439382 2.2161593 0.27513072 0.07808435
-0.10480382 0.97022396 0.28111759 0.055051088
-0.1663776 1.7100337 0.20354487 0.37861907
0.59367877 0.94956529 0.36884061 0.42307416
0.55539167 2.6686563 0.25728694 0.19681172
1.380792 1.597934 0.31635714 0.39029083
1.442417 1.656513 0.02840759 0.0024481602
1.6689459 1.7701372 0.093469575 0.36518952
-0.04786713 1.5159714 0.44327387 0.17134403
0.20020856 1.1522208 0.22639512 0.23019598
0.099076271 1.9231572 0.10881505 0.33455834
-0.61686009 1.4096613 0.25763249 0.31076407
1.9973664 2.0606642 0.0075757797 0.31827301
-0.17767054 1.1966604 0.20856383 0.42290223
1.2532988 2.2586832 0.4253504 0.27572048
1.0799605 1.1598067 0.14091 0.37240681
1.5246309 1.8817928 0.043750841 0.0094070099
0.92713016 2.0732625 0.23960298 0.47524115
0.35615528 1.8343679 0.30979949 0.21390919
1.2880503 1.5741401 0.024673255 0.30183062
0.30378059 0.44060165 0.12010363 0.14845175
1.0463461 2.440764 0.071353965 0.23057777
-0.42396381 1.6833743 0.0062982403 0.32646132
-0.14231983 0.48223183 0.19886813 0.40294456
0.63859856 1.6679436 0.41235158 0.039967429
-0.16073918 0.48394939 0.015208583 0.21285088
-0.45805007 0.92084241 0.42676008 0.32644629
1.0265591 2.9418285 0.12827691 0.47479153
1.7008274 2.7546167 0.12324327 0.33986431
0.051685005 0.87729114 0.070442073 0.1426869
0.70309669 1.0286783 0.46914822 0.2068259
0.71252221 1.4253553 0.10977045 0.45534065
1.7108929 1.8047487 0.4953081 0.42340025
0.7236715 0.76828998 0.13625114 0.17444916
1.3343997 1.6017336 0.00089545501 0.22796483
-0.12139435 0.42663762 0.20275636 0.49812689
1.1407883 2.5238876 0.33799121 0.45460096
-0.49022675 1.2426089 0.097287849 0.21189846
1.9644624 2.2463269 0.41872436 0.20912215
0.9543997 1.0752929 0.16446282 0.14508775
-0.011201179 0.66664934 0.068488009 0.22469339
0.43292412 1.3015587 0.39914256 0.0058123297
0.57022935 2.267447 0.23377717 0.28219488
-0.49342248 1.3586324 0.28032178 0.40676332
0.94651401 1.4484736 0.36136425 0.28313002
-0.5351572 1.4107389 0.4950285 0.011919878
-0.47869474 1.2767099 0.22104204 0.25954062
1.3311117 2.9666703 0.40462837 0.49286449
-0.47699887 1.5302639 0.21755788 0.21556333
0.58953774 1.0846558 0.22137566 0.44560587
-0.57266814 1.3583817 0.22780077 0.045948818
1.6502974 1.6847584 0.45271212 0.15421949
0.09224955 1.4247628 0.43734953 0.15318184
0.54561412 2.3800387 0.16510171 0.29781666
0.92241919 2.5606883 0.057357285 0.28837854
0.49916098 2.4592001 0.281243 0.31692433
1.1405706 3.2568035 0.032487657 0.11295756
0.13101362 1.2080644 0.058563445 0.13223974
0.48180017 1.6967406 0.17818856 0.10070246
1.06428 1.6196446 0.25492197 0.42092234
1.6159649 2.4317038 0.074104168 0.21770558
0.19055484 1.2054194 0.015522247 0.47078037
0.42874616 0.73794782 0.25915888 0.3969982
0.090783544 0.26219428 0.21392255 0.46996722
-0.18215334 0.8632766 0.082924783 0.15470409
-0.19893418 0.40134951 0.28694382 0.20928963
1.1574277 3.1308172 0.3099921 0.22233921
0.3156316 0.59103858 0.14326155 0.041010179
0.78374428 1.7059489 0.25871575 0.38183504
1.5492381 2.7127314 0.35261542 0.081921212
1.3146223 1.7888404 0.47891942 0.38198271
0.37290919 1.1910683 0.35194993 0.19137897
1.2485833 3.0936005 0.34608305 0.43952566
0.13585211 0.70023739 0.14881529 0.0042153886
-0.232397 1.7141578 0.2265546 0.19419239
-0.4223575 1.1466396 0.23520257 0.28090698
-0.32862467 1.7668933 0.162742 0.043753449
1.1159723 1.1811283 0.12567466 0.11527386
0.39145577 0.83521086 0.49725658 0.2793079
0.76806164 2.2496195 0.47068685 0.23668818
0.75727427 2.1012154 0.17621385 0.36044419
1.4486656 2.8276474 0.36465958 0.047956109
1.07522 1.462209 0.2421485 0.30755794
1.2809097 3.3061388 0.088464901 0.048212189
1.6441665 2.7099471 0.091965638 0.23942572
0.82314676 1.7465163 0.35469958 0.39369601
0.86938351 2.362607 0.17300391 0.11967041
0.65025145 1.2598798 0.35635859 0.48524389
1.9075049 2.0456982 0.34568807 0.41025752
1.2196984 2.1121278 0.45821363 0.14143805
0.99606365 1.8461281 0.44899598 0.26259214
0.70099556 0.85992867 0.31080434 0.1489826
0.65511096 2.3639193 0.3884083 0.055232115
0.16705105 1.1984705 0.44892815 0.44264466
0.2308846 0.74819851 0.062315051 0.29622671
0.53484833 2.31113 0.2814706 0.22608355
1.7346454 2.2741339 0.13634107 0.30884761
1.2981975 1.6993592 0.45028567 0.13906816
0.68655658 2.3805652 0.40166029 0.47263002
1.5524714 2.4538825 0.12161262 0.22541036
0.47472733 0.51724255 0.28064248 0.23564489
0.74927276 1.7232584 0.17828953 0.34819284
1.1510332 2.1718321 0.14441955 0.1171255
0.073460661 1.8803595 0.34320903 0.1105243
-0.4531191 1.5814397 0.4193719 0.39055517
-0.20837472 1.3599496 0.029623318 0.36902162
0.53108543 2.3608668 0.34165165 0.2056818
-0.045282383 1.9201814 0.43109217 0.25898287
1.708541 2.6068549 0.49462777 0.22641401
1.6277575 2.3613834 0.074606873 0.29280788
1.4446747 2.3739252 0.40993339 0.07280013
0.25683156 1.3308239 0.18332443 0.19796543
0.84199625 1.2776998 0.088520586 0.30679733
1.8369472 2.3381894 0.17581895 0.24129318
0.18499607 0.25911757 0.44697496 0.19317579
1.5049176 3.1089206 0.45215866 0.45402008
-0.25085485 1.6446995 0.18043409 0.031106992
0.14717762 1.2292248 0.32391489 0.033225652
1.6805862 2.6727204 0.10602579 0.11898398
1.6569235 2.8845325 0.3169494 0.21968322
1.0898914 2.8101549 0.026480539 0.36440048
-0.18590942 0.67237467 0.10569364 0.073041417
0.85792089 1.0813749 0.2662172 0.20050497
1.5186269 2.4451172 0.15452506 0.020537509
0.22702064 1.648132 0.0516445 0.28486606
-0.14928307 1.4440805 0.31809172 0.06406749
-0.13561542 1.6637628 0.18305147 0.096398324
0.90566558 0.90566927 0.31608152 0.10551426
1.2358112 2.6891789 0.46991473 0.42908475
0.083405122 0.40418422 0.0021261666 0.26463166
0.16473827 1.3032228 0.46513665 0.059012718
1.8957478 2.4034293 0.079550229 0.15188158
1.7432555 2.2998676 0.43674767 0.044620939
-0.33174205 0.74944991 0.10868843 0.11616175
0.34666729 1.5844148 0.21256007 0.39242461
1.1972458 1.3187619 0.49793887 0.19721162
0.91323888 2.8981736 0.12629636 0.41606525
0.002776562 0.54762721 0.1806969 0.17173892
1.4770954 2.0958147 0.23075165 0.38348517
0.68756777 2.0040672 0.035366748 0.22011606
1.2054409 3.2084527 0.26473701 0.44825071
0.43478006 2.0190899 0.06441246 0.40591067
0.30903885 1.4841337 0.29833528 0.45690611
0.87761599 2.1346009 0.15411772 0.1768178
0.72403377 1.9137299 0.092883036 0.30758971
1.3476464 2.5083477 0.47932863 0.30560252
1.4823223 2.3736174 0.18908767 0.1849087
-0.23095235 0.72132713 0.40502477 0.46187875
0.5938915 1.3141297 0.41012946 0.42352262
-0.48787576 1.5254351 0.32943332 0.20835255
0.88639337 1.4284697 0.16525865 0.057128578
1.3473947 2.7023938 0.23394638 0.18817052
-0.038831621 1.3477881 0.49576023 0.0086270422
-0.24587636 1.769755 0.31422955 0.019822814
0.78091484 0.79498869 0.20473152 0.2055513
0.81113446 1.276791 0.16743004 0.42434049
1.0762091 1.4052662 0.34786311 0.3227053
-0.029687379 0.72251767 0.031057848 0.30361587
1.0166478 1.8495482 0.36074445 0.2291078
-0.067333922 0.33440524 0.41727832 0.11548328
1.2042342 2.9566083 0.12411033 0.021929583
1.0267789 2.8864975 0.041752394 0.073296547
1.5252116 2.5709543 0.27884784 0.16942878
0.88026696 2.7736638 0.093769275 0.1357583
-0.52342904 1.3502585 0.45846358 0.075938813
-0.18771563 1.889148 0.37955469 0.42399383
0.44860926 1.4681122 0.15310164 0.20153078
1.3217098 1.6203066 0.31701407 0.2565102
1.4271269 3.2986593 0.27843979 0.37154591
1.1571105 2.5155709 0.44484246 0.32112139
-0.033463098 0.91557449 0.49055019 0.42291632
0.60186821 0.9596054 0.058674615 0.19380558
0.085867308 0.15857854 0.2697444 0.14488067
-0.18288632 0.45053601 0.068874508 0.19249757
1.3390036 2.2807686 0.39402837 0.22458819
0.94190282 1.83728 0.48109841 0.2757746
0.27854672 1.3796741 0.14732051 0.031631112
0.20792924 0.59894359 0.35275251 0.14640649
0.85454857 2.3110585 0.06932281 0.48582146
1.6332315 2.1762786 0.17962703 0.45357403
-0.019748844 1.8867726 0.098454691 0.15179527
0.18198422 0.89190185 0.34429285 0.4882687
1.3146456 2.3257568 0.2128569 0.18166144
1.6321942 2.4550767 0.45743603 0.10153044
1.7758619 2.2203062 0.13316156 0.033223871
0.14827241 2.2098312 0.17963035 0.012772763
1.0446756 2.1008945 0.49859422 0.25683895
1.347223 2.1033516 0.21041296 0.022086205
0.10452495 1.4149394 0.17388147 0.22626314
1.9946297 2.0717368 0.21453184 0.36550218
0.48379928 2.2970562 0.047163624 0.20585912
0.50831425 0.52782893 0.30738956 0.074837528
-0.15907434 1.7100258 0.1080614 0.3062757
1.402481 2.6230538 0.31904846 0.25568196
-0.29374334 1.0539004 0.0125209 0.4135955
1.7884963 2.7343245 0.4356817 0.12345655
-0.020023357 0.44481385 0.34971967 0.0079983547
0.45107886 0.72367501 0.37350056 0.384233
1.490944 3.275671 0.090092108 0.11298431
1.2421176 2.9284894 0.18782185 0.034620017
1.0157095 2.2710359 0.34089571 0.26449797
0.1283835 0.80696911 0.020179935 0.12021992
1.9799833 2.1187212 0.033815421 0.47345072
0.42059696 2.4125047 0.096907273 0.28743619
-0.29620144 1.5986762 0.29543456 0.20679779
-0.19275679 0.52397412 0.091030777 0.002518768
0.12399107 0.89243037 0.11550309 0.014863094
-0.095475376 1.1914233 0.049483109 0.41663733
-0.13117437 1.5250627 0.18113531 0.18278317
-0.07120046 0.78290778 0.3030031 0.027909793
0.51651281 1.9455128 0.0013605133 0.48965076
1.1606156 1.5775305 0.27708697 0.38537595
0.08791133 0.39559412 0.092173725 0.055773232
0.7653234 1.5425943 0.058292001 0.33105591
1.2999268 2.037277 0.34591898 0.44293192
1.4650658 3.1426148 0.35956925 0.076328196
1.1549008 1.3275957 0.25911137 0.33610389
0.93896002 1.2024894 0.36401367 0.47603589
1.1758121 2.7259636 0.46568665 0.20524862
1.6237326 2.6537337 0.090624563 0.0085367197
1.0791682 1.8547157 0.064309955 0.056751788
1.379433 1.8995891 0.3878077 0.23033017
0.92696673 1.9185849 0.1732621 0.27351704
0.50141644 0.64070815 0.34984526 0.41490969
0.15789865 0.62016243 0.25101358 0.31555575
0.56312001 1.0511394 0.29159164 0.070004061
1.6743243 2.7658637 0.27525267 0.44404343
-0.51720822 1.0350775 0.45258015 0.31534711
0.18262658 0.25428525 0.37209886 0.41467834
0.22425131 1.3269415 0.1450085 0.4358891
1.6442058 2.9945138 0.20940615 0.12276201
1.4058053 1.6571878 0.037671708 0.42463791
0.30538353 1.5301715 0.24019367 0.33927909
1.6678561 1.8027097 0.40928316 0.38411403
0.96541995 1.7483392 0.32815745 0.28911555
-0.18313836 1.0079304 0.10446263 0.099088609
0.58876771 2.610647 0.013766937 0.43711978
0.77870667 1.4523338 0.37300888 0.23010132
1.9073825 2.2570398 0.35286331 0.32814801
0.048739821 1.7056396 0.25278592 0.30987445
0.06318903 2.1547241 0.14915355 0.082932875
0.022426492 0.27035242 0.46704689 0.3138285
0.61336321 1.8658091 0.10294402 0.29338562
0.028877072 0.90882903 0.39247423 0.37356967
0.20599909 1.9295344 0.31068945 0.42043623
0.016053438 0.79541939 0.15053755 0.042062636
1.1242137 1.1386424 0.37021065 0.40777978
1.4973851 2.0192153 0.21765421 0.07315623
-0.026699489 1.529534 0.1560891 0.14074101
1.6300188 2.1524405 0.45456949 0.168217
1.6935313 1.9375404 0.46160263 0.49428228
0.6232208 2.1254416 0.36785194 0.44888833
0.85194016 1.6094271 0.36932459 0.32533461
1.5087636 1.5930314 0.36739725 0.12835301
-0.23733167 0.77075326 0.03613279 0.41719893
1.1710061 2.2477331 0.49035516 0.47658056
0.30453679 0.92584717 0.11732157 0.045839224
1.0420629 1.3470708 0.21405622 0.18792059
0.30059794 1.0458553 0.18220286 0.39432472
0.055369671 0.26773417 0.34321308 0.2900537
0.66927773 1.5709987 0.11538833 0.090835847
0.30322692 2.3515127 0.21918887 0.25566283
0.57397097 1.657209 0.17286175 0.080997929
-0.1921788 0.50029194 0.0575785 0.12970342
1.0664351 1.8084732 0.17554265 0.079241432
0.49607006 2.148998 0.26716202 0.3761957
-0.35863289 1.5478609 0.27052042 0.094993398
1.9580148 2.4405451 0.38504711 0.22801584
1.3836354 1.3854828 0.31885168 0.058670938
1.9963356 2.157728 0.31433377 0.20361449
0.55563194 2.6226275 0.28461242 0.30247086
0.15421484 1.6060079 0.4321743 0.46007359
-0.079823859 0.37718043 0.039315034 0.2638821
1.6765083 2.9767804 0.1400778 0.062573522
0.50477183 2.2467926 0.15756692 0.2552616
0.042965323 0.22376129 0.48327744 0.35060284
-0.24463181 1.0371935 0.40927377 0.026270445
1.126989 2.0756755 0.22988492 0.1335319
0.87385923 0.93536621 0.43600276 0.36121547
0.9926191 2.554662 0.32128906 0.37377924
1.509076 3.0389898 0.13766134 0.4732098
0.31608286 1.4944302 0.035783328 0.42292309
0.52560914 1.3459247 0.1781847 0.21266904
0.77276957 1.4577955 0.06327188 0.27901369
1.2985709 3.3034122 0.30528414 0.30376098
0.78247094 0.93168068 0.43729287 0.40695623
-0.31720302 1.2665563 0.2681717 0.40635467
0.89796525 1.2775152 0.2801339 0.21736671
1.3186119 3.091167 0.19057651 0.11714604
0.50946093 1.4698244 0.04006914 0.3838717
1.4720216 2.3979943 0.096540757 0.15567435
1.3849894 2.0630169 0.43468806 0.34330732
0.22217675 1.2402925 0.14706829 0.32851148
1.0480208 1.4059349 0.23546772 0.32480767
1.9365265 1.9519672 0.23116235 0.19912952
0.37901539 0.42694131 0.41649622 0.04316508
1.6690573 2.1233284 0.16031112 0.12462584
1.1312541 1.9813956 0.0084975557 0.25314265
1.6275675 2.0732074 0.40881702 0.29835013
0.63787794 2.0952466 0.14165743 0.39720926
-0.054155789 1.1708037 0.22572073 0.35861853
0.93065459 2.8873115 0.18342623 0.3307437
1.3857809 3.1447313 0.029873205 0.057928078
1.1756146 3.0693996 0.10109316 0.3549763
-0.14294559 0.96609885 0.47960213 0.38687474
1.2689087 3.3397403 0.14001741 0.38041866
0.32608876 0.53327566 0.17876877 0.35798895
1.2114043 2.5708575 0.25519821 0.47581673
-0.21702977 1.8233365 0.33443528 0.48223877
1.8504428 1.9262228 0.31298247 0.40693527
1.3498591 2.8044727 0.46486336 0.3583349
1.1338016 1.4136313 0.21331118 0.34266728
1.1160536 1.9345155 0.229542 0.28914535
0.24533711 1.8132449 0.16956399 0.27415097
1.2824777 2.7603285 0.13213994 0.31073329
0.16820483 1.8115413 0.28655005 0.27791089
1.3912834 1.9045806 0.26014966 0.31036445
0.48565269 0.79592603 0.21729973 0.071296886
1.5072694 2.2801218 0.42963177 0.20521292
0.85053039 1.456986 0.047880184 0.075480372
1.0325831 2.2095859 0.36462572 0.01686923
0.57523859 0.72029322 0.29102021 0.065375417
1.0244666 2.819783 0.37610871 0.051281445
1.0872984 1.7774011 0.32919231 0.17875534
1.0770513 1.4560971 0.4891198 0.42249089
0.39739799 1.2731619 0.49378777 0.07846193
1.0498106 2.8462276 0.28367484 0.13670218
-0.18733744 1.2193314 0.21218255 0.40221873
0.35372791 0.67959774 0.41908795 0.25595883
0.17378666 1.0652001 0.32133424 0.49352044
0.28618306 1.1238626 0.044801891 0.44376659
0.99887449 2.5855975 0.12252194 0.14374578
1.8078837 2.2815394 0.066236667 0.12581031
1.2645323 1.5191944 0.20427224 0.20664386
1.3610177 3.4312019 0.34334603 0.049806453
1.2770034 1.5125912 0.45202518 0.42847934
0.036624443 1.6111242 0.18443815 0.24333481
0.33642948 0.36091965 0.23685525 0.21448962
0.46384636 1.6588165 0.15825622 0.06331706
0.26329249 1.4545333 0.20706284 0.11898755
1.2783927 2.4379044 0.24479787 0.21048115
0.77909267 2.6843357 0.41712502 0.3167679
1.4857452 2.5908303 0.36657438 0.25651932
0.89010507 2.2418084 0.18499863 0.44833648
0.28242031 1.8498079 0.1916713 0.27093402
0.98584968 2.8039339 0.48542365 0.078424521
0.68853986 1.2981219 0.14174159 0.36583504
1.3075389 2.7873907 0.4848226 0.3168779
0.1933108 1.1675079 0.027359067 0.45542789
0.12952444 2.0153108 0.27219582 0.11570776
0.67330027 1.2620523 0.37222704 0.020954758
1.859526 2.102314 0.46929124 0.14708242
1.5825403 2.2654464 0.41801643 0.30187166
-0.19088045 1.5207709 0.3802962 0.29967275
0.16874692 0.26224527 0.16550781 0.47157797
1.3607509 1.9985489 0.2884559 0.49294615
1.1653652 2.5052545 0.44837403 0.058641423
0.79242241 1.7282211 0.17434917 0.46525416
1.4586818 1.656288 0.48620892 0.31670973
-0.20378022 1.7287433 0.46379215 0.030464415
-0.045849547 1.5740272 0.33233607 0.20595177
0.90950024 1.8116225 0.0056245308 0.33236864
0.75360298 1.479656 0.30394661 0.10551224
1.2331741 1.6252047 0.098458387 0.2014136
1.665689 1.8643821 0.26005504 0.1685165
0.52015144 2.3631723 0.13377067 0.12674227
1.8709505 2.3799808 0.443452 0.084782369
-0.25569677 1.4720939 0.11524678 0.19194244
0.59336931 2.4923027 0.3978942 0.074301459
0.10907352 1.8210585 0.40667009 0.39488515
0.018860713 0.91243172 0.00039740233 0.39611381
1.1457984 1.5652081 0.097527429 0.21123669
0.11240481 1.6294987 0.3797532 0.4130905
1.2196689 1.2770457 0.039832767 0.2729671
-0.11706068 1.9333431 0.35774946 0.20898321
0.98795635 2.9947095 0.40092567 0.17958173
1.361771 2.6295562 0.25388318 0.08079423
0.63139343 1.3125633 0.4756794 0.2769897
0.90146667 2.9212894 0.17310353 0.17418921
-0.064817913 1.083372 0.3854259 0.22062081
0.16894357 1.2940031 0.13371129 0.42020008
0.93700814 1.6732932 0.19316718 0.41220641
0.59336144 0.8093825 0.12118963 0.047357801
0.070178121 0.16400534 0.22693953 0.44449201
0.68162656 2.7215846 0.025286248 0.02327377
0.59844196 0.60253882 0.30026346 0.012545988
1.3544776 3.3628037 0.1867352 0.051975027
0.93314439 1.239298 0.27259582 0.37221134
0.85660809 2.5804234 0.29241142 0.11604314
-0.34793192 1.7122036 0.028249554 0.23668005
-0.056502655 0.57751411 0.28403786 0.060408164
0.71231961 0.75889271 0.0049001779 0.49248964
2.0438411 2.1719112 0.015763398 0.13317609
-0.31476244 1.026026 0.14572208 0.0081945071
0.75762856 2.1681254 0.060169533 0.033391789
1.246049 2.6578529 0.40560314 0.24195856
0.73426384 1.5743685 0.35800168 0.31892371
0.23267809 1.8714033 0.055603743 0.22008842
-0.32890409 1.1120732 0.2804966 0.2072449
1.0839384 2.2947743 0.19973452 0.34241906
1.034146 1.9484262 0.47559515 0.34673527
-0.037820134 0.47688532 0.35492977 0.32091865
1.3381631 3.0992804 0.35431042 0.35839289
0.68402743 1.7867473 0.10035145 0.48693717
1.2946153 3.239243 0.30586088 0.14152129
0.95084441 2.4844089 0.36160973 0.3802948
0.65225273 1.2551587 0.087539703 0.051725175
1.4074748 2.626276 0.39414424 0.24308626
-0.5111292 1.0575422 0.089821517 0.034296945
1.4544035 3.3413234 0.35521558 0.44483116
1.2304022 2.1193459 0.30322406 0.10771526
1.4209216 3.1331472 0.094652429 0.42736772
0.96912175 2.6683557 0.068888992 0.206533
0.50266111 2.3291125 0.086827807 0.46308413
0.0614441 0.8012228 0.014809309 0.00010808557
1.3802323 3.1152754 0.24319434 0.46441388
0.71143848 2.124305 0.49871084 0.26974958
0.6779387 2.1795213 0.21458073 0.13761774
0.24402611 0.31956536 0.245333 0.032892007
1.3069531 2.7493889 0.46025971 0.28330889
0.97912723 1.1027946 0.48984188 0.0024766577
1.8416915 2.1669734 0.46556079 0.032252435
0.38571474 2.4237525 0.03236052 0.21267894
1.262067 2.4311471 0.17709284 0.16801658
0.21200266 0.95787448 0.43776616 0.38633788
-0.089316972 0.5570361 0.023955617 0.093182512
0.34106073 1.4835556 0.12607452 0.091531917
0.34151545 0.70780057 0.3748408 0.34977278
-0.025786608 1.521431 0.35224941 0.075130351
1.423048 2.7714026 0.10738279 0.19238958
1.067445 1.6603258 0.40506852 0.18750396
1.6457672 1.9943483 0.35552055 0.023868902
0.67968285 1.923993 0.41020679 0.28769511
1.2766649 3.11866 0.38087761 0.11578525
0.85333776 0.88283312 0.20731717 0.31272504
0.27959159 0.62815833 0.16249782 0.20876929
1.8749286 1.9374959 0.28389966 0.38819304
0.85756493 2.5176356 0.080582626 0.13073778
-0.55518335 1.50526 0.31824175 0.4463239
0.04196706 0.77917808 0.47019282 0.3257775
1.4435549 3.0574536 0.11347261 0.41268259
0.63545674 2.7328072 0.02846784 0.01801301
-0.32792494 0.67242616 0.33073807 0.094588719
0.65137696 2.7439995 0.30335802 0.26478365
-0.089531429 0.28067151 0.15297669 0.34054059
1.699971 2.6908791 0.47127837 0.0095658461
0.52058792 1.7489178 0.45588976 0.28702298
1.3629692 3.1706843 0.11280048 0.43033144
0.9802953 1.9402907 0.34301403 0.12104417
0.41067073 1.9867349 0.13905719 0.22192566
-0.209296 1.7838764 0.31651437 0.42520985
1.7949495 2.303525 0.1899935 0.47101426
0.39374533 1.8488446 0.31155485 0.18567017
-0.075299367 1.1246604 0.19523601 0.29573998
0.093245231 0.73441762 0.082762942 0.035635803
0.050998852 0.88070416 0.46596724 0.38369054
1.3527353 2.6636317 0.0047346991 0.14245982
0.56228781 1.172345 0.36438549 0.28773001
0.22607832 0.99357146 0.21293986 0.076618254
0.70623481 2.4157362 0.047632508 0.0079023298
0.53531283 2.0592158 0.19357249 0.32243308
0.05268408 1.7022589 0.11817306 0.21437396
-0.11473958 0.73775965 0.25000978 0.11714264
1.3767669 2.2930799 0.00083316513 0.31833592
0.098014809 0.12163726 0.46079576 0.2054214
0.17380403 1.5534312 0.4931514 0.26294687
-0.26565716 0.60871404 0.33956513 0.30685335
-0.085027821 1.5577126 0.31475568 0.3549282
1.0335451 1.0688787 0.17736126 0.38840559
1.2669597 2.5208056 0.10277955 0.437071
1.6074257 3.1041842 0.054213628 0.39296973
0.21390286 0.44744664 0.21130566 0.093724586
0.013778064 0.7439425 0.299146 0.20997441
1.6964207 2.9365335 0.47292128 0.003363742
1.6725614 2.9983289 0.31021711 0.10741328
0.67044944 1.200664 0.46234146 0.44606903
0.36797869 0.96068716 0.33447462 0.030437689
1.2281836 3.0832958 0.46750867 0.43170735
1.1998303 1.2919903 0.32467708 0.3588098
0.27481642 0.42747834 0.45253438 0.13738376
0.5268966 1.594686 0.34735817 0.20536682
-0.26636168 1.092469 0.20873056 0.042366415
0.5364818 0.61686993 0.14977969 0.33244988
0.45203954 0.92772937 0.27851892 0.27722144
0.90860128 1.3879923 0.30765915 0.18706092
-0.17596309 0.99147511 0.11876829 0.3402912
0.63247168 2.5138512 0.19910099 0.37365922
1.8195965 2.4629309 0.011042997 0.18751232
1.2042681 2.7248354 0.39287913 0.44729352
0.61437982 1.0454733 0.48965994 0.31144646
0.31428418 0.90587646 0.14389637 0.26447782
0.46989664 2.262053 0.041699279 0.0033846884
-0.34384045 1.1383618 0.19044562 0.085656546
0.091025591 1.402909 0.42594773 0.42141637
0.89509696 1.4256338 0.2950756 0.23208743
0.74095416 2.0397055 0.41959974 0.17999987
0.25608638 1.581822 0.12729339 0.34320039
1.5914321 2.0876231 0.15464686 0.034645956
0.66557944 1.932191 0.29912379 0.0079537844
0.45545098 1.9014407 0.011338473 0.25636736
0.52150589 1.3776033 0.34202388 0.31470773
-0.33230856 0.80459875 0.2361241 0.26365727
1.6233211 1.7556902 0.49574471 0.16970445
0.84373456 2.6058919 0.34970433 0.0018380573
0.29199594 2.315726 0.34503844 0.14191194
-0.30806106 1.8119241 0.1765579 0.35034406
0.59256095 2.6107073 0.35829785 0.019187026
0.82007122 2.3883054 0.27555439 0.0066862376
0.13673033 0.63557267 0.32139397 0.082418405
1.5544069 1.7984353 0.34607568 0.27857023
-0.1070095 1.3432117 0.4482747 0.42603606
0.6696521 1.9338701 0.42787412 0.48498821
0.780671 1.9385408 0.12690015 0.36892784
0.72738016 2.0148437 0.2192719 0.070826344
1.0745894 1.4036899 0.09001337 0.095644474
1.3803437 2.9313164 0.10233071 0.018626457
1.4505777 3.2482893 0.10104486 0.36869591
1.4094161 3.3063879 0.14726616 0.06996049
1.0907574 1.496103 0.49599653 0.04610581
1.07012 2.8684509 0.03109402 0.16849668
0.6114428 1.2817553 0.037424516 0.469381
1.5947524 2.6838231 0.040207352 0.24059194
1.2340113 1.786491 0.33623642 0.28147221
1.4832247 3.3439076 0.30009866 0.4789345
0.96977133 2.6716793 0.34763041 0.34353453
0.77766985 2.8773382 0.41349503 0.13720502
-0.19541498 1.5419106 0.18331082 0.48395735
1.1111218 2.0207646 0.15245402 0.030145381
1.3114264 2.1170127 0.49952638 0.33385122
1.8384651 2.007041 0.074443154 0.28084111
0.14026712 1.882633 0.062313303 0.16574293
0.96920031 2.506784 0.14467742 0.21153849
0.4219428 2.510628 0.055073034 0.11181954
1.4043778 3.3923438 0.24902456 0.07764183
0.99255657 2.8268003 0.061599176 0.21142183
0.3198491 1.2279999 0.24156721 0.019139232
1.3727794 2.395653 0.35299045 0.35050669
0.58696711 2.4004142 0.13134779 0.45078182
1.1606146 1.982249 0.11652475 0.18735987
-0.13149782 0.97668916 0.39889836 0.31962854
0.4335393 2.3595769 0.43144807 0.24071439
1.5374563 2.3031368 0.31835622 0.3005991
-0.058734145 1.55328 0.012020918 0.25954825
0.040216897 1.1161002 0.27868748 0.49794033
1.9125361 2.4711983 0.34844702 0.27550906
-0.42774332 1.6078537 0.22629088 0.39722472
0.25109661 1.7055401 0.084584586 0.22952896
-0.24243803 1.8088064 0.049157508 0.35752779
1.1762826 3.2153196 0.098242171 0.35999382
0.094237998 1.8617153 0.16059291 0.27388626
1.0140584 1.7463968 0.03343451 0.39056236
1.3668146 2.691036 0.38850269 0.42088369
1.5477861 2.5530787 0.19639274 0.0029114594
0.32180423 2.115099 0.40013617 0.39020044
0.44091919 2.4974153 0.1197294 0.36951703
1.7475779 2.4641044 0.22704482 0.40565807
0.17421767 1.5542935 0.26565188 0.31057075
0.42343158 2.2318351 0.084456995 0.038439151
0.2526978 0.75286913 0.42900151 0.025060561
1.375374 2.7224302 0.44594422 0.37381342
0.029733527 0.63361812 0.37672487 0.27119845
-0.11568168 1.0589403 0.16139887 0.33051983
0.71222222 1.9049485 0.20003685 0.22978552
1.3052679 3.1172221 0.13544358 0.099507667
0.50347489 2.2051787 0.41007841 0.49425402
0.68940842 2.7875445 0.032693189 0.42619887
-0.17594793 1.7828568 0.45125943 0.042440403
0.62280983 2.3080022 0.41625383 0.33365282
-0.24657778 0.99642557 0.10485126 0.10456121
-0.08022958 1.0493741 0.43508103 0.33142155
0.0099239852 0.58318061 0.061207082 0.49739358
-0.014215705 0.82010239 0.096901238 0.31456822
0.40483099 0.43444312 0.30882224 0.42508638
-0.47654799 0.97237927 0.35128525 0.11394195
0.85854888 2.1421371 0.15638235 0.082409039
0.74473727 1.0529064 0.41606188 0.23928894
1.5215969 1.6103238 0.34385014 0.43545461
0.82386225 2.007267 0.26687619 0.33454165
1.2926816 2.6846209 0.33193523 0.47624859
-0.50152916 1.3178699 0.29081681 0.12248006
1.7081002 2.1308329 0.047566433 0.43733114
1.3075985 2.9997828 0.051273093 0.2443646
0.56078315 1.4417906 0.32677364 0.40114465
0.84575534 1.8760191 0.14043358 0.14590648
0.43411011 2.4887519 0.081361108 0.0509119
0.62424433 2.1016901 0.38545355 0.17726395
0.44063056 1.362933 0.15351255 0.20105447
-0.0079953996 1.8771344 0.32353452 0.08204136
-0.33827388 1.2361741 0.019372504 0.48512289
1.0454041 1.3451279 0.22948749 0.47134897
1.101166 1.3398619 0.37249359 0.058592658
1.2506778 1.3055233 0.20449914 0.06284529
1.7052197 2.9180222 0.11375719 0.26042581
-0.13706295 1.9809089 0.43768975 0.31041807
0.78997445 1.176913 0.011472558 0.3628248
-0.3230235 1.0982912 0.44486615 0.079500064
0.2179098 2.1875076 0.064622939 0.47606069
-0.26793364 0.97987121 0.44740963 0.31318527
1.0340892 2.3913238 0.37177795 0.14946823
1.3042078 1.6278242 0.21231352 0.33004135
1.075285 2.4586859 0.090467155 0.49623486
1.3402325 1.4596921 0.30665296 0.041880988
0.056500852 1.4061931 0.40470576 0.15489088
0.15531726 1.6384252 0.23439093 0.35924065
0.90851599 2.1771245 0.33530134 0.3486948
-0.004720706 1.1947204 0.16188009 0.44349587
0.3877556 0.53055459 0.092964098 0.43544465
0.034687527 1.3298707 0.265486 0.47207248
0.053869955 1.5640513 0.46830735 0.45662978
1.2407883 2.4073462 0.49851078 0.0034692779
-0.17530465 1.5353982 0.15836015 0.24621841
0.51705664 2.1833584 0.10545906 0.066599019
0.19026053 2.0602486 0.41529381 0.28488928
0.83896828 1.1663895 0.22838515 0.32608557
0.015763734 1.3791331 0.26153022 0.2207671
0.49902558 0.61364573 0.19283958 0.25797519
1.3969053 2.0805938 0.21460497 0.26707944
1.5488551 2.4530284 0.27054873 0.029193025
-0.11301273 1.7066935 0.27541143 0.36912072
0.82605541 2.441952 0.43571973 0.013424929
0.86815614 2.3573806 0.29831421 0.045102246
1.778887 1.8921628 0.37118784 0.039019451
1.2889535 1.8520286 0.25978655 0.47467548
0.037585184 1.9579152 0.23265068 0.042703666
-0.14981689 1.7477281 0.3097831 0.049880248
0.56679177 0.90761083 0.079073273 0.27670366
-0.4621121 1.0418391 0.14582436 0.33090067
0.88320678 1.2291691 0.3443256 0.056986094
1.6334636 2.2386329 0.10208834 0.36074513
0.049131632 2.0570724 0.3997646 0.017387776
0.22405602 0.90097421 0.49206325 0.2657285
0.15813434 1.1115148 0.30843219 0.2259503
0.56242353 1.0639685 0.27583057 0.33234096
0.34045428 1.8461837 0.1090446 0.20778781
0.5279212 1.6092386 0.038688481 0.44474375
0.88561606 2.5106072 0.0017298376 0.26897073
-0.037980918 0.4024823 0.12971587 0.19499303
0.28539193 0.41046697 0.21238081 0.18308857
0.51286566 1.3802484 0.44881707 0.30120888
1.4569578 2.5483739 0.027159203 0.1011276
1.164469 2.4499457 0.43346855 0.074011669
0.60976309 0.79013115 0.2817995 0.36728212
0.80844712 2.1681623 0.31202587 0.1337952
0.41966847 1.7508212 0.40276593 0.22915591
1.7256798 1.8634884 0.42414895 0.49466825
0.069801517 0.64904821 0.1777568 0.25099391
1.2676269 1.8046345 0.052202813 0.27013183
1.5161889 1.8528934 0.37125942 0.25928769
1.1912308 2.4840822 0.33329937 0.040245358
1.3104451 1.7987682 0.40752748 0.14462329
1.5375431 2.4690289 0.27841851 0.13908885
-0.1149151 0.65378535 0.36824477 0.45088294
0.493002 1.7335235 0.44555119 0.27562854
1.6453843 2.1685357 0.026622463 0.26989728
0.9486832 1.2831105 0.040029109 0.13370502
0.089482009 1.8344315 0.39299271 0.040539064
0.59645522 1.5565312 0.080784425 0.063257694
0.75782174 2.8295536 0.20788099 0.27697775
0.1941663 2.2573602 0.41606662 0.24117433
0.30849713 1.5147282 0.19205728 0.38115019
0.13082433 0.71464759 0.15677874 0.0056285355
0.8476063 1.6257117 0.27552581 0.010798321
0.66627067 2.0050569 0.14450334 0.42041376
0.90938783 1.0684701 0.46095282 0.44285998
1.0601329 1.2372091 0.0061176815 0.10517906
-0.17515202 0.73276746 0.38215682 0.23791443
0.42804155 1.6932963 0.47908875 0.36778209
0.10812836 0.83423954 0.24893227 0.15923986
0.73617244 2.4574585 0.1648684 0.06967096
-0.2447404 1.6236939 0.08046928 0.35133868
0.76774085 1.7222189 0.27175245 0.48279259
0.78446531 1.7717502 0.42565256 0.0262568
0.55374569 2.3855917 0.13143586 0.3044917
0.59922224 0.65689105 0.042406112 0.34606707
1.2925252 1.3837203 0.21384917 0.39435086
0.16283438 2.1262498 0.053590715 0.0013954234
1.2544333 2.1812768 0.07106638 0.45760468
0.45965376 1.1025652 0.30894333 0.41480243
1.4832683 1.8256315 0.39759502 0.13897695
0.87250692 2.2439303 0.16523375 0.087843575
0.66239488 1.9210575 0.39233527 0.40078676
0.70151418 2.5459657 0.24685384 0.12207835
1.284114 3.2387114 0.01642921 0.14887716
1.6976693 1.9947387 0.15027259 0.29197693
0.91089231 1.849954 0.24958161 0.44733235
1.4992063 1.7475066 0.36213478 0.24938291
0.22335009 1.3252903 0.38835987 0.45262179
0.27625045 0.50362891 0.040465359 0.33799523
0.87396848 2.710186 0.23878199 0.1605255
0.87255585 2.9329343 0.28260386 0.32377824
1.4707588 2.7394485 0.47265542 0.36982331
1.3919128 1.9134521 0.16180025 0.15753202
0.87881929 2.6241646 0.10486437 0.21714161
1.333209 3.3145187 0.46652451 0.10912751
0.46004727 1.9656942 0.061749294 0.30970636
1.588472 2.0221322 0.14770161 0.25874123
-0.39801311 1.2416979 0.41926673 0.40255728
1.293281 2.1497452 0.22633553 0.31845826
-0.27758184 0.56666523 0.1882816 0.36995664
0.87069595 2.3559673 0.02748866 0.16618592
0.92212099 1.4836473 0.38332754 0.23137046
-0.073249824 1.4110467 0.34049797 0.32608119
0.29975963 2.0063503 0.13578755 0.11321446
-0.38198385 0.82075876 0.37195569 0.039477203
0.30928263 1.5448347 0.44203448 0.042092182
1.8539052 2.5682387 0.36055046 0.49399665
1.4895215 1.6966983 0.36395326 0.18927988
1.1388658 2.7996132 0.3554658 0.16037756
-0.23675127 0.77636307 0.39174804 0.12314717
0.047645129 1.0329815 0.44922835 0.29338184
0.45037603 0.811068 0.4065963 0.13895522
1.1695026 2.3512986 0.17843242 0.038477823
0.12566176 0.63675952 0.080570005 0.062867388
0.60159266 2.4731083 0.056864023 0.15619785
1.4835669 3.2689435 0.34547773 0.38886639
1.0406266 1.893158 0.049243949 0.33605421
1.2419888 3.1129594 0.4592014 0.028382288
0.1573797 1.8902004 0.32176414 0.30773127
1.7705622 2.7394135 0.44668651 0.36195073
-0.14761794 0.38321671 0.40042853 0.076686822
0.36169773 2.4024017 0.1395542 0.034422725
1.5131218 2.3464539 0.19062057 0.4120715
0.44633752 0.59948963 0.30093789 0.42949477
0.5104515 1.9961472 0.26554897 0.17677873
0.91750091 1.8710359 0.20516102 0.46441182
0.52695739 0.64119112 0.2721431 0.12662575
0.77361327 1.7020286 0.48857644 0.26219803
0.90911388 2.5595224 0.33888486 0.08953435
0.89317697 2.923022 0.12395708 0.29212251
0.29697669 1.6316166 0.20419402 0.29209283
1.4805344 1.5023073 0.22158758 0.087717794
0.81855339 2.8852987 0.26449654 0.14648756
0.23476401 2.2273521 0.11089939 0.34506702
1.5651181 3.1902297 0.47169277 0.25186831
-0.21871224 1.7340447 0.014066339 0.44582063
0.98269653 2.4801416 0.035354983 0.21927771
1.1806685 1.8565723 0.011400235 0.0062475405
1.7056475 2.6203363 0.29834035 0.32456565
0.90827942 0.99282652 0.41228345 0.076039903
-0.22003244 0.52998149 0.22252747 0.21895143
0.14974502 1.5643554 0.064018458 0.14302023
0.8678984 1.0194082 0.39488855 0.31834143
1.5259172 3.2609658 0.26416206 0.34525463
0.68759227 1.9583355 0.064532332 0.093296312
1.8392622 2.1614168 0.099543855 0.43271881
0.67415029 2.3622301 0.25728449 0.012252982
1.5328217 2.2522376 0.088292882 0.42487669
1.0298634 2.3485625 0.14382812 0.49278545
0.31804964 1.199868 0.13580567 0.36071655
0.98992002 1.1201445 0.179058 0.23953822
1.2384652 3.1188889 0.084792838 0.20155515
0.81866878 1.4522018 0.29485145 0.20156626
0.39792845 2.0712061 0.13428509 0.016784564
0.68627405 2.347563 0.029037545 0.21009171
0.093454212 0.59124506 0.1349684 0.40748543
1.4222121 2.6050456 0.40027088 0.072397999
2.0136318 2.1666918 0.43311456 0.2302009
0.12464833 0.60055619 0.46973911 0.00641983
0.15789124 0.38925076 0.20797499 0.2981298
0.86089534 0.87288696 0.49969605 0.42911488
1.4957913 2.0642252 0.44589943 0.1895013
-0.56325984 1.4517272 0.399593 0.086688221
0.34258026 0.48921189 0.49417365 0.020418191
0.77163631 2.4451227 0.092816189 0.30000106
1.7898746 1.8998893 0.030201947 0.4972918
-0.12110075 1.9999696 0.0037116364 0.19349594
-0.068260595 0.82984966 0.49162573 0.25833017
0.21526791 2.2997696 0.18744503 0.11173482
0.34303769 0.90877032 0.30123612 0.15085362
0.17538396 1.0274298 0.23754184 0.20054884
0.67098224 1.6540679 0.22096704 0.048748463
0.091495134 1.4227645 0.34874952 0.056681074
0.905366 2.5131209 0.053972881 0.47781727
1.5259266 1.7706612 0.17131321 0.43336555
0.91241449 1.6037059 0.19169571 0.48388419
0.11828682 1.7268447 0.095619008 0.27956364
-0.5082677 1.175446 0.43041724 0.12076662
0.17690916 0.88949925 0.32131547 0.33307478
1.6358792 1.8152686 0.38182324 0.025834607
1.1845798 2.1628172 0.082515679 0.1957797
0.27164787 0.85071981 0.17359696 0.48841673
0.33602998 1.7993599 0.42178228 0.46354422
-0.12718114 0.35426515 0.44742841 0.16210982
2.0291259 2.2117608 0.44167346 0.0051039066
1.3401327 2.9187799 0.12587054 0.037586801
-0.46249962 1.43475 0.37066159 0.43972439
1.7195716 2.7907739 0.46555901 0.34553424
1.9814519 2.1854155 0.041313924 0.092581786
0.47910562 1.3908952 0.08099851 0.37873632
0.2498666 0.26166448 0.34228054 0.067670159
0.083533846 1.3126649 0.22977999 0.10887748
1.1692939 1.8967093 0.11398139 0.27265891
-0.1544597 0.86314583 0.31024572 0.083593935
0.53769314 1.3052179 0.023318319 0.17650643
1.1473502 3.2214808 0.022040669 0.41644973
0.067177072 0.33596784 0.0090315007 0.22151522
1.0532588 1.4352238 0.10025155 0.33808655
-0.23207203 1.6454326 0.40575668 0.20906956
0.79363745 1.3686709 0.31794703 0.064997412
0.69160974 2.5241268 0.33765632 0.35053426
0.51963723 1.1471324 0.4341282 0.35881826
0.74809283 2.688874 0.035324708 0.26220149
1.8124647 2.0558455 0.17865118 0.4832758
0.24674806 1.0430182 0.20479104 0.39898545
0.74683982 2.0410259 0.23707198 0.37052348
0.84838015 1.4543508 0.079593055 0.47981572
0.6187976 2.3054173 0.044813119 0.085355476
0.8569231 2.4796035 0.43588972 0.0012488731
-0.39442906 1.1754241 0.36006716 0.35918084
0.83014542 2.5076511 0.1213823 0.27378827
1.4965748 2.7695091 0.25706407 0.073477201
1.4160428 3.3755281 0.47246265 0.26542887
0.83602428 1.7250044 0.13595237 0.014472359
1.1901236 2.1046054 0.49428806 0.13072865
0.42448384 0.59037614 0.21608412 0.44255406
1.5736493 2.2184198 0.44380292 0.45194212
-0.33643392 0.95277762 0.31112295 0.34945622
0.23374194 2.0687063 0.12324449 0.15201916
0.44874087 2.0622535 0.22549635 0.22025493
1.1717212 2.01159 0.48568383 0.10906135
1.5568296 2.0728881 0.12353371 0.25985694
1.2639153 1.7637907 0.3905856 0.45026714
0.51491404 0.9674753 0.39282119 0.07849361
0.62127334 2.0494485 0.030435735 0.28063536
0.11302944 1.5621402 0.13009158 0.3397561
0.80448359 1.8792975 0.49177527 0.0066027092
0.25973767 1.1815431 0.22685765 0.47580829
1.4610953 2.3628323 0.084869646 0.32272425
1.1230688 2.0072494 0.082581192 0.17135927
0.71489722 2.7223737 0.12162641 0.48314813
0.31828552 0.37958154 0.061641727 0.33848006
1.359254 1.7499056 0.11911542 0.49156591
1.4873304 2.5446262 0.33132204 0.2077001
-0.44613925 0.9246465 0.21430282 0.1361877
-0.45262426 1.4190611 0.111996 0.45559955
0.37369195 1.2089221 0.2783238 0.48787957
1.2090141 2.7402043 0.15923883 0.23149414
1.020143 2.2117534 0.21464226 0.41390827
0.86218172 2.0343554 0.25238833 0.14638457
1.0374396 2.6135964 0.13795048 0.3019976
-0.15151924 1.8394355 0.0096977074 0.12325381
0.92363548 1.8739892 0.25944152 0.33273873
0.17542675 1.7513026 0.28833827 0.31886292
0.19551131 0.47833461 0.30674246 0.47357216
1.1550164 3.1320076 0.20506631 0.26163885
0.45372364 2.2343962 0.17554712 0.042159382
0.22633386 2.0419102 0.18854395 0.064353995
0.80868 2.1938787 0.3663516 0.42014992
0.72301883 2.3184609 0.043403734 0.088136755
-0.0038123969 1.2810512 0.42087549 0.26521081
0.44354618 1.3311651 0.084073722 0.24258591
0.61774462 2.2758372 0.21615808 0.20344295
0.91806233 2.7051661 0.46508181 0.10364404
1.2475766 1.8442146 0.14580342 0.036925483
-0.18194461 1.2365711 0.10127947 0.36800355
0.021063725 2.0050542 0.28815347 0.45660874
0.98921961 2.3958976 0.044745483 0.44373021
-0.088266201 1.8871963 0.20894101 0.30868521
0.32737559 1.5705318 0.051271122 0.45071062
0.40172654 1.5363325 0.15415356 0.040628411
0.63176501 1.1376379 0.14427245 0.029586503
0.6922816 1.9229692 0.066511989 0.32842866
0.29059008 1.0024689 0.1964322 0.28526503
-0.11075848 1.9451644 0.24187374 0.47910291
0.93593979 2.1519623 0.42283309 0.45054531
0.88380778 1.442878 0.25923052 0.42707494
1.3631108 2.6804576 0.37778556 0.10861975
0.28546381 0.42096999 0.14924817 0.2665844
0.22627819 1.4715806 0.29617092 0.41103879
-0.15824127 1.380492 0.23946744 0.2080197
-0.48716342 1.3622022 0.4932847 0.16589689
1.4514037 2.4490967 0.14499979 0.23662817
-0.0035352958 0.2842553 0.18717349 0.27401787
0.21555017 2.109482 0.20109282 0.12439582
0.97840744 1.31306 0.23301558 0.33483648
-0.070443757 1.5513639 0.10142089 0.26199198
0.18351015 1.8703493 0.17303076 0.25938082
0.52089143 2.270973 0.46740052 0.29074904
0.82661951 2.7811415 0.45664594 0.26888314
0.68714565 1.118392 0.0055113146 0.21762139
0.44653943 1.2640318 0.49163926 0.36908561
0.31753945 1.1352324 0.49348143 0.39599445
0.83203048 1.792976 0.23083092 0.38242796
-0.0084421728 1.4011829 0.14441995 0.28454512
0.52620077 1.8730301 0.043925948 0.49011829
0.95957249 1.0076267 0.28086734 0.078346737
1.6666816 2.674365 0.34722987 0.16785541
0.94007844 2.4366326 0.3854768 0.0086376285
-0.34059647 1.2593715 0.37772325 0.18451479
-0.22862203 1.346266 0.080509245 0.34145865
-0.025788259 1.2951162 0.22388661 0.20646247
0.088345066 1.6509374 0.4910076 0.37343559
0.73869789 0.88690835 0.36355388 0.41570619
-0.0079778293 0.60474956 0.49405292 0.018271733
1.1377641 2.5857043 0.18612716 0.22109352
0.72191083 1.0257007 0.22973114 0.23944999
1.7517943 2.2076848 0.4239648 0.018568181
2.0244513 2.043433 0.36002684 0.076360784
1.2212147 1.5772293 0.28282326 0.4594062
1.5313517 2.6931176 0.33284178 0.13797727
1.032231 1.8654672 0.053683445 0.3550244
1.3784542 1.5809824 0.37329614 0.22275142
1.5664313 1.818543 0.44384494 0.083043151
0.31042784 1.0468488 0.32249314 0.07974726
0.84376723 1.8893996 0.09831544 0.25968957
0.41642028 2.3610017 0.33605033 0.06674616
0.011163075 0.51550102 0.02615235 0.49447569
1.1584095 2.6814926 0.13245296 0.20146884
-0.028237585 0.76147234 0.056493249 0.39620671
0.38442412 2.2078662 0.11895813 0.12289193
1.9867367 2.2531877 0.20593508 0.12023993
0.96266824 1.0832789 0.19998719 0.017409634
0.74437952 2.0099704 0.27709919 0.025818095
0.92883438 1.4088873 0.092564255 0.29890057
0.81650013 1.3201721 0.29337627 0.12472758
1.4245416 3.2311819 0.3261964 0.033100545
-0.066174932 1.5574398 0.42930725 0.3458384
1.2574788 1.4622515 0.46873033 0.30169174
0.22420935 0.96525192 0.42193168 0.3474476
0.68923396 1.2064918 0.36485726 0.47797975
1.582092 2.1843622 0.0037978529 0.17686635
0.94604635 1.3548762 0.47576693 0.48712909
0.53187573 1.6737536 0.11185667 0.19278945
0.20769733 2.0661991 0.22589 0.30693808
1.1413141 1.7997603 0.15277648 0.13322181
0.69138229 1.206892 0.43491355 0.31453109
0.75189692 2.2658629 0.16197871 0.49926585
1.9932722 2.1071274 0.4772456 0.39898556
0.035827257 2.0767217 0.075851902 0.42389834
0.25540391 0.47440407 0.41102743 0.29248425
1.3285151 1.4256041 0.48527372 0.015734453
1.6569604 2.5528522 0.32267252 0.28167996
0.88195151 2.8991108 0.41490176 0.069823608
-0.083364904 1.4007758 0.38435471 0.39312804
0.81126106 1.0078371 0.39239386 0.18542461
-0.21231785 1.3559295 0.084410161 0.24196173
1.2611767 1.9411111 0.16586009 0.42808846
0.79019916 1.1164052 0.22057272 0.032642927
0.13218436 1.0055169 0.04837738 0.060708828
1.2444804 2.8187118 0.34238878 0.28337112
1.1062065 2.1977978 0.35319471 0.44345471
0.11846597 1.1263028 0.33658272 0.31376636
0.88059103 1.8520564 0.49919099 0.35705218
0.30016255 0.65485215 0.099013917 0.44929895
0.66003555 1.7838007 0.3773874 0.45574412
1.3114347 1.7270443 0.48838702 0.44153315
1.2369493 1.3929275 0.0022419745 0.2208167
1.2428281 2.7049725 0.0041878163 0.2543132
-0.072999857 1.4432459 0.19776791 0.20902713
0.35418308 0.49992049 0.022793492 0.37881479
1.086112 1.1793842 0.23586698 0.36194324
-0.025631282 1.395148 0.31124219 0.34944883
0.15646164 0.9567492 0.30519292 0.4415164
0.80071235 2.0462666 0.38304955 0.090396248
0.85664797 2.4913015 0.31121296 0.23815867
0.52943355 1.8675658 0.49247187 0.33184355
0.46401781 1.2711369 0.040870681 0.26771528
0.86282176 1.132926 0.14653006 0.48791763
-0.17741466 1.4449586 0.34986091 0.19123426
0.69399804 1.3775007 0.040683083 0.31703284
0.99464756 2.4620752 0.25854924 0.13632238
0.39141062 0.99216342 0.22671863 0.46980032
0.060442615 0.22137271 0.20795901 0.2568126
1.2156101 2.0659664 0.088656165 0.02611566
1.4742967 2.0238326 0.29383093 0.11526111
0.19687559 2.0651691 0.10317875 0.27883968
0.72865158 2.6507361 0.47007394 0.040035978
0.46905395 0.51469207 0.35706881 0.46387544
1.3495572 1.840083 0.10019782 0.49608898
0.62894893 2.015938 0.46588933 0.28410718
1.3020605 2.0396366 0.040919766 0.2181804
1.4046842 1.9544283 0.24429606 0.26494992
1.0453603 1.2071193 0.38021103 0.45229378
1.3464363 3.3972852 0.23113346 0.30124602
1.567063 2.4207137 0.34128201 0.050572157
0.61877841 1.4603096 0.014447593 0.068597421
1.1699239 1.6563232 0.06468641 0.071185693
1.8301477 1.9598696 0.35529286 0.30640993
0.3069686 1.9879564 0.024590313 0.078703292
-0.27085119 0.86993706 0.3436532 0.28489134
0.98595554 1.9357309 0.23718512 0.28550133
0.21700162 2.2039092 0.086747356 0.14368337
0.11391288 1.9298877 0.19425553 0.38149038
0.24103478 1.1264871 0.45008779 0.44034901
1.3509578 1.4136394 0.011534693 0.2649104
-0.32636899 1.2299485 0.071320325 0.24977401
0.9803468 1.3872612 0.32847729 0.28882873
1.3042734 2.0345612 0.073720045 0.17181036
1.2403769 2.5594358 0.45731169 0.10324866
1.1223371 1.3092638 0.24693204 0.44874972
1.378968 3.2507684 0.3302401 0.098468557
0.23948887 1.4288194 0.038817558 0.47323924
1.1808033 1.3944298 0.23814966 0.34045205
1.3322873 2.6452572 0.090226047 0.18021996
1.1277484 2.9041562 0.46904868 0.27017763
0.32489118 0.50634354 0.44198799 0.48682854
0.93581623 2.6299014 0.090077184 0.13289765
1.4044088 2.8342178 0.081647374 0.41544715
0.59779221 2.3452828 0.013915709 0.4280875
0.74092466 0.96465296 0.40132675 0.48731747
0.24010542 0.83185363 0.32776952 0.02026532
1.3135831 3.0869882 0.20048529 0.35432699
1.1887351 1.9080069 0.12450463 0.42753273
0.80668938 1.0887936 0.41436124 0.065976612
1.9699125 1.9887432 0.19887426 0.40915108
1.0519222 2.2420747 0.32459822 0.11964445
0.33759174 1.7737846 0.04773194 0.38462448
1.0248564 2.9300511 0.37194195 0.49433273
0.093187839 0.9404918 0.014598036 0.037481446
0.19521479 1.1077361 0.39180845 0.4544059
1.6087229 1.6779333 0.38193864 0.096920021
-0.067716524 1.1893773 0.16289663 0.048597999
0.76430321 2.2991672 0.45774907 0.14218594
0.20439675 1.4022949 0.26183039 0.33470166
0.074983448 1.3883452 0.21932612 0.012108408
0.96816349 1.3553811 0.0064411247 0.34715608
1.2047677 1.2940294 0.38463753 0.40868655
0.61082923 1.7836901 0.36309245 0.12073979
0.89554513 1.9351239 0.21765982 0.37556472
-0.36283576 1.2517285 0.42416272 0.34206924
0.48800302 2.1083174 0.48425519 0.38461989
0.34887463 1.3929273 0.21932153 0.28512028
-0.38424739 1.476777 0.29722869 0.31426892
-0.30253229 0.98582959 0.16142499 0.32089525
1.3124813 1.507908 0.22958179 0.060831457
1.2372265 1.63041 0.18157125 0.11526752
0.8681643 2.5619583 0.49083224 0.37903625
0.60014635 2.3608208 0.22110549 0.022114841
0.96924472 1.8405162 0.4067347 0.46116579
1.7370538 2.2718651 0.24628606 0.0070941476
0.21297626 0.39759368 0.32136306 0.094619624
0.79021388 2.83851 0.41551489 0.17189352
-0.082795024 0.53279799 0.23272498 0.35135907
0.42287317 2.1805832 0.46662658 0.075476207
0.68323916 2.6240726 0.45451245 0.093314782
1.3318262 2.07691 0.11542962 0.16936047
1.5850102 1.6790456 0.13052624 0.33242485
0.095953621 1.6946329 0.33951899 0.21292448
1.555775 2.2383399 0.30754411 0.26751161
0.29408765 1.2404468 0.43940511 0.1725207
1.3185234 2.0488095 0.023879768 0.10592656
-0.32700491 1.7540373 0.18140277 0.3999536
1.7083421 2.2849815 0.49326837 0.32041889
1.1680011 1.6291677 0.48977938 0.19251177
0.38506407 0.89547759 0.024936613 0.27908292
1.5936747 3.1399288 0.49200743 0.41744497
-0.31613123 0.95475829 0.18495658 0.16900779
-0.079945691 0.44767633 0.34152848 0.39076617
0.74114287 2.2914388 0.49669275 0.38291812
1.2581527 2.0137479 0.28287172 0.30387977
0.94171357 2.1132767 0.12429866 0.12554388
1.4713992 1.9553913 0.31805566 0.015700459
0.5093413 1.9645343 0.29478338 0.23150158
0.47454333 1.6912937 0.14894657 0.23278554
-0.10589078 1.3107404 0.40179333 0.10895287
1.6001441 2.6324711 0.49971905 0.25475666
-0.24072964 1.8653672 0.13767478 0.46464467
0.14562914 1.9298568 0.26852444 0.488518
0.27893484 1.9455421 0.11406189 0.081524722
-0.58182746 1.251492 0.097225182 0.24128477
0.61280823 2.2759597 0.47278637 0.48255768
0.58642524 1.1028943 0.21534322 0.26514176
1.767444 2.2644124 0.37409461 0.41390091
1.0006429 2.5866001 0.16865759 0.46918842
1.1375142 2.4371724 0.43383312 0.044732738
0.67638868 1.534919 0.033250745 0.42356548
0.19548576 0.82048035 0.0050901836 0.10208178
0.19229792 0.62638527 0.34336656 0.35453999
1.6501311 2.9914544 0.33709764 0.17312333
1.7836297 2.0061176 0.43826509 0.3935219
0.27771276 1.6029427 0.30742285 0.030035783
0.11658729 2.1364255 0.49922422 0.056398816
0.58574039 2.4230471 0.10113155 0.009291634
0.38447142 0.95460719 0.4328571 0.23059553
0.57577938 2.4338324 0.3326773 0.36112511
-0.078143679 0.66874719 0.21566509 0.034586582
2.0135963 2.2374496 0.20770991 0.43008262
0.23990136 0.8592208 0.32360452 0.27478105
1.7592486 2.3151507 0.30481681 0.14450803
0.024440955 1.3143779 0.20090686 0.38952059
0.57877636 1.8602169 0.3988122 0.37251326
1.382525 2.7896788 0.10310878 0.21811564
0.52759176 2.3764756 0.079240754 0.30987924
0.057394411 1.308574 0.34446582 0.10402672
1.4012452 1.6226082 0.034109339 0.45287222
0.33479846 1.8524499 0.22765325 0.15648539
2.0276339 2.1653929 0.30099344 0.09584906
1.4250084 1.4330707 0.48536965 0.073609494
0.74618751 2.376133 0.44612274 0.2403594
0.84615505 1.0550268 0.45847505 0.48546776
